49.21862172369694,8.80495744564546,40.00955151735288
-7.824145748114697,49.384033283160036,88.36685035270047
-14.129291155980988,-47.96210099056877,32.863012087140795
35.415116561256724,-35.29546031648546,21.228052992217073
-39.32006861714877,30.885792914262577,36.803968629071946
-48.178353048827766,-13.373342794623513,47.015871613038826
21.180031678949383,45.292452550935025,35.14576963638031
-44.798167746925586,-22.206399224509944,91.21521505922091
49.5279811925086,6.854128609423283,98.59580032963305
4.919603432034973,-49.757386407160794,62.643219051731144
4.776129119023062,49.77136315833051,23.107227902253303
-35.083090686110516,-35.62550698460508,44.2372017053455
-48.09857213185769,13.65750192665125,69.60706898546377
-25.95143677302672,-42.7378395501644,71.43754398355586
49.99141488754981,-0.9265190450625898,65.52389641125819
48.625438469429845,11.643312829933423,66.0895723894747
14.524977578565897,-47.84375639874192,21.41230954552874
-48.90095481772083,-10.425767018077163,96.37172636453218
-24.316332210822683,-43.688854274436025,75.39307361778003
-49.91860819757273,-2.851763597710047,41.91531434128367
-9.660545697190242,49.057862334517786,33.63262773281659
-21.27711130655498,-45.246928453194144,72.31445335894476
-47.526188425025204,-15.532591985531601,47.88721908358453
26.32591484249912,42.508189889778706,8.636676377763596
47.13997438205321,-16.668017736352667,46.12433871281924
-44.34986696974777,-23.08872668134116,52.64253419575831
-6.14572317730425,49.62086342082275,43.91883535575791
42.416659032676066,-26.473138017728452,83.97312843462174
-48.774390616887295,-11.002673309305164,26.69135587866235
37.39038710018811,33.19576708705625,35.12353583489809
-37.023799302728314,-33.6041408935163,61.956206238174616
-35.00470204014498,-35.70253261437723,55.8473941315374
49.30149123677599,8.328442941516762,41.996550937781066
22.313093542768577,-44.745121036283486,71.05014332923125
29.17948301806482,40.602435527914665,33.20188208887905
48.79110340197744,-10.928322324014143,58.377909644442816
41.10572526960914,28.46610879729466,0.2378827230688385
-44.129680998115255,-23.50683421910712,88.72907086258792
4.235588201546681,-49.8202749148067,31.296097404491917
-10.623047017464614,48.85847799578632,88.02492789262855
-0.07873298688312852,49.99993801112934,90.93877196546985
-1.3697744985988627,49.98123365647339,3.4003211107850317
31.621134893702514,38.7311738530382,52.79965631493725
8.890864619785582,49.203175977904564,75.95098360245065
-6.85023720978312,-49.52851956367869,64.81884599306854
25.16572456778907,43.2051652812274,42.24904901788016
-13.12693756778332,-48.24607248358688,81.95869917622898
-38.244321197431496,32.20825819797916,51.231980548026776
6.6475089954722675,-49.55613608984376,60.03547728106944
32.641817924904565,37.87494848257062,18.506768566309983
-13.323802006026476,48.19207715075378,70.32723690267217
-1.0625268483256458,49.98870909211986,65.80738803703044
48.521471847309186,-12.069248931511101,34.9841654726348
19.53130548353252,46.027471211320446,23.651499238250462
19.03743389327368,46.23392813464193,86.2144271571907
-49.28272081682178,8.438804944493103,2.7352440392505617
-39.64420546996626,30.468622756125647,90.18013845780658
-46.93916065961015,-17.225422972203223,41.52269939958762
37.419484033334136,33.1629645037812,95.83401220219521
32.731336419699915,37.797613895329775,38.09953958744741
-46.765717910533574,-17.690891111314862,93.97431421395606
-47.116256829364914,16.734943752200785,46.804181060176994
48.67172530548647,11.448281783187742,2.9419546860080414
45.864938571618644,19.909982667537616,91.05174575598137
19.69471546970604,45.95778696333541,47.1492322309643
-30.94633551492586,39.27243713086366,34.006266962245135
-49.20695868355493,8.869905135621115,3.9407650994196186
-36.50644336684116,34.16547369353481,20.189810018570252
-27.77384519082826,41.57659826532115,45.76960316683102
41.306268798298696,-28.174317346879864,50.167753997126454
-8.46485500466664,49.27825311179334,90.71918013114934
-17.306224268290432,46.909429772441655,29.83728948147387
-46.16973316035454,-19.192595965675366,23.646895228468402
19.794488439651396,45.91490201897972,16.228087886178677
-49.40564282851512,7.686511347886768,69.08887720484992
-32.9651854165775,37.59383660190412,53.68255010716433
34.06644838345921,-36.598867394184616,74.82027780042363
33.9892538295185,-36.67056890903878,81.51562701172908
-33.88795632750919,36.764200194548366,76.2930084489164
-18.24149009755868,46.55371133455064,73.00387772785703
39.02837907377439,31.25356982608178,70.89727968359381
24.237575971916705,-43.732595521024884,97.82043653532725
41.64237891916358,-27.675120197621556,20.660308754362646
44.297812369512144,-23.18844150165114,63.74563874438485
-18.530597404010276,46.43939017526487,25.735819475052757
-38.86119422540257,-31.46120759563336,7.857210680828974
-49.21684103462925,8.814905477203625,47.63681255272609
-45.47727087166738,-20.78022699743662,54.02326450832491
-49.984347920654834,1.2509847908463947,25.96569754536683
37.38108528495556,33.20624132477024,72.1918478318084
15.717943783831986,47.465210872894026,78.43007359249607
13.364571286989149,-48.18078698314282,72.06540376870211
-46.23509392706699,-19.034602427035175,63.115951181140126
45.11635787685332,21.55259269618611,14.417335773465867
16.99727566148454,47.022256646055446,74.45398181527734
-26.913755541911787,42.13845942402513,46.394049486166956
47.38150401787086,-15.968502653802174,34.07717354459263
11.688658005443342,-48.614558251945326,16.98438829232294
-48.61890450081036,11.670566616110895,0.8081527024460633
29.78380816247057,-40.16123468397295,39.581083172738495
-47.4765706895973,-15.683597659837814,28.28049082504881
39.46250831709427,30.703589974517076,45.45338584941002
49.6475099214503,5.926614429798346,8.4652091655535
-1.820265154415321,-49.96685536200594,35.80814057602101
32.429975878414,38.05649306656469,60.88688704193541
49.99035492517292,0.9820460555591872,78.45488557238774
38.33271275054207,32.103008164102455,89.12749447745416
4.676256546872599,49.780845962155276,70.0916406213269
-49.8068310382101,4.390852073480874,37.616287471121744
-36.867805120924764,-33.77521199882414,86.8644824611937
-6.640035122065356,-49.557138068877,13.779071991855506
-48.25455572913672,13.095718818897964,89.32006782072598
-5.687264269460621,-49.67549723082112,13.581874166542619
-34.372841171890045,-36.31126257474423,65.66374682953796
-12.75941827732942,48.344567897791286,37.739042150819316
-13.470622690033307,48.15124426577946,78.45762909763488
-49.173517968520656,9.053459592861532,77.48652690006756
-47.8026427138211,14.65971860489711,96.33509452923103
33.34871287838899,-37.25403802750479,30.45147327510598
-44.17741303588286,23.417006159135877,10.725814895373443
49.53475688281404,6.804987917734125,56.39949863191897
37.5465215463024,33.019066003947614,2.1196997631744985
2.039488975751619,49.958387531202284,24.73719405634175
-32.53247037420114,37.968913223210976,27.503125973002973
-35.03724008190919,-35.670601444924586,77.77689531564583
7.843156955812593,-49.38101749626559,67.35008349770158
42.05767737483876,-27.039818302532577,7.87307735884808
44.2652926820306,23.250459431464325,86.60586701157203
49.19063890197592,8.959968996342168,0.012560775542169722
27.15899112680407,41.98081944143275,99.75458493079337
47.43263145670345,15.8159878949292,52.44019533021865
40.74324962351107,-28.98253974578945,82.46833273695331
-37.250138885536344,-33.35306811986348,87.91066683147997
-17.27298970801707,-46.921677576006765,53.44184340855126
44.84441928505662,-22.112848278456635,38.515845697759524
43.67137812463269,24.347704875313276,62.09097051131194
14.455020277906256,47.86493903438423,60.37915670067247
1.4701290855265694,49.97838253156948,45.59202958224427
-15.907131734711427,-47.40214298926301,25.4469368862703
13.778415817168874,-48.06407450028753,60.84622815681527
45.88322310432628,-19.867809077968797,8.661013996283673
-42.913102014478085,-25.66058603179196,79.73126153396365
1.4330758908806565,49.979458715466066,20.698921139195402
41.33709530769538,28.129069510428334,68.98352152383784
-35.221296916845304,35.48887492574854,16.52282974674677
-45.45124081272745,-20.837099332283717,35.67401328763866
47.58461219207339,-15.352676721991518,46.029485907511116
-49.82094293007665,4.227723448624088,47.02348376371995
0.703102786330617,49.99505622030897,80.10455157059589
3.4450962931784326,-49.88117191416745,66.32488501706186
46.896980787724345,17.339930593742682,92.53753831277385
-27.816966706063056,41.54776002715164,8.107046959874985
43.97664090588191,-23.791911538065072,56.19876560508692
-18.75107375307854,-46.35080617536883,68.44330155462785
-37.60607691874435,32.951221203188865,82.7735749026052
-26.61220265338776,-42.32954842583395,46.13459875353899
-49.97160824410777,-1.6847461225418587,18.120028518032594
-29.856940537834465,-40.10689593723525,62.011270611858194
17.91251595189947,-46.68127860580671,33.56190431377338
-43.40292786965129,24.823091111742052,60.66868486765181
-46.35514713267641,18.74033975967145,1.8785417585335917
21.16307374659291,45.3003786915327,79.03161348310319
-33.20450517002026,-37.382627468037846,72.8445219425421
-38.57279329343297,-31.814141785408772,11.474475119745353
47.9428021264341,14.194637165689919,75.25476747384673
27.246681452060777,-41.923959138539466,30.92695071432071
35.29253844103213,35.41802832440379,58.652646135786526
11.82087050522469,-48.5825793932219,69.03302093460546
-49.99801703736366,0.44530027115752735,75.27077723957335
38.11826782135546,32.35734318975241,69.37048265805991
48.68861871517964,-11.376221147984879,8.85882797748172
-12.332944491725186,-48.455118204004265,84.28109084054279
4.8183978489953105,49.76728887702039,45.75669275071059
9.241359967646085,49.13855172823461,4.049787585475261
-22.596282965336425,44.602780139251934,50.18032445664844
5.896971082878398,-49.65103958677699,74.4654083648508
38.14033007464238,-32.33133498322224,89.83517783046562
-10.189311581865535,-48.950770468784874,92.54317818082421
40.92043992541461,-28.7318220151548,3.8488005174737827
-40.68234314923942,29.067971306706852,15.261631009503063
49.48209227631061,-7.177920587376377,14.474266201192298
46.377871557191156,18.684031412537284,91.51409684305843
40.61313134712879,29.164594325669345,2.8672222817926474
-49.69065271850058,5.553290232769346,54.78783773235867
32.67339564891119,-37.847710852437444,19.775142297534554
-28.01242771914194,-41.416227414865396,72.81754742663693
-48.8401887048766,10.706818727896918,25.987505760706608
10.987369912614229,-48.77784028022745,30.58822108698308
29.943778011900672,-40.04210481947739,53.509262373301524
42.43928274506986,-26.436854579999025,92.177124915902
49.73315854679054,-5.158773202981024,41.54143207778135
4.349426825885917,-49.81046563008886,13.086620729156252
-49.641552122021224,5.976311815547302,0.4603717637910343
49.69265317922696,5.535360874330135,29.887829140339818
-8.314143657158162,-49.3039046653319,89.01267786197018
-25.90892497477606,-42.76362480720531,30.92878505857265
2.5634119956013954,49.93424595346171,78.68417271045163
45.51955546250733,20.687437504333857,21.418379611977823
48.138260299636976,-13.516948447204896,81.97940307485071
-15.666323476043509,47.48227362652265,92.30660025266391
-21.645005884586958,-45.072094695678345,28.762081024667452
11.911920895809812,48.5603350541568,12.541785742580025
39.39643726143565,30.788321342771585,11.654831620836138
-27.382080952540335,41.83565037989164,3.762103952213258
14.856987910694611,47.74169990921431,15.506596296441266
-39.95877054716435,30.054894050039017,31.32146535081303
19.481618769013522,46.04852364776551,2.5056835599017835
0.6382674842454985,49.99592598020918,65.56764444365767
7.381944997351041,49.4520665701251,83.67974387041819
8.7777368522667,49.22348358001859,17.866531826266673
-45.19419495794371,21.38889296114634,45.712296719803525
-43.76652444580259,24.17625566408009,32.696789228386855
-45.691635102103604,-20.304543375713077,64.50078431132201
-23.385404432546704,44.19414960745625,9.989788762207418
-49.99239970990313,-0.8717632965873647,66.79528795849305
31.188007032815406,-39.08079089937993,4.567880566077953
22.14987138229384,-44.8261441320558,60.43980376999014
49.72572005481757,-5.22998709653414,91.67992390497552
39.489717628572805,30.668586560446276,97.3263173847801
10.72350361772283,48.83652803138943,15.611008935713988
9.140250345984107,-49.157459491034906,66.88106489876363
-26.90290838732502,-42.14538551612972,45.43017146054237
47.25670833335226,-16.334121264900524,45.28820548629937
-28.96607852964482,-40.75495423398791,11.689469280502484
-33.743221011284646,-36.89708709076637,3.35174838966692
-48.83117493168641,10.747853496910007,42.85819340750135
3.6136136627750046,-49.869246999490635,41.25551125675023
-49.234635002050396,8.714970809754544,97.40811179839527
44.846633900875865,-22.108356514241663,81.77095918819678
1.3095168640426753,49.98284871416182,98.47303842795843
-35.153333238091086,-35.55619724115221,29.544634085475142
40.89755844501109,28.764382719552696,47.979777506836776
-49.49658698369581,-7.0772789238120675,48.89848543509612
19.987653928669104,-45.83114323718926,80.44092096703503
-15.30991697827567,47.598386969710496,40.949729200173515
3.1108562248587623,49.903131901196915,12.467618111900103
-3.4045721050883473,49.88395422158566,24.343288849190415
24.103818997723323,-43.806459680337014,79.66129057352775
-34.70233699864439,-35.996497146701884,0.9795000682899735
-49.67083149487057,5.727870337933104,32.00625904023073
-32.64197093091643,37.87481661665449,25.027275076173293
-42.4081493266174,26.486767841534004,33.64458275887744
25.60232897937391,42.947884125203544,50.46981086621769
48.41804884230845,-12.47768192830038,6.467269782478969
49.61075734183639,6.2267773341774815,65.11041186895102
23.3733538074714,-44.20052411217272,69.48286919684487
38.125305026873924,32.34905124741407,55.098085411789825
48.47039808017598,12.27275478241428,1.6254523332826398
-11.924744292175337,48.557187661212744,20.761934727107324
17.9275863237444,-46.6754930194068,48.69531633955899
44.85156881291354,-22.098343264156284,47.2778992641839
9.16848042623011,49.15220205315155,82.16437538579078
37.800427253451296,32.728087317417994,74.91818665554197
36.80327933764414,33.8455112237256,44.670868509148974
-3.526411378255276,-49.875489198516256,79.6721324393064
-13.687940907714152,-48.08991862861618,10.770272103358147
7.070513953511097,-49.49755380251841,92.11575236780143
48.597022465139766,-11.761352282909504,44.1038810051668
-10.584732461626272,48.866792801613194,26.873492438906865
-37.41043032076236,33.1731774663716,77.74765763051026
-47.29686711285726,-16.217470866590816,47.38709992796587
-8.750899673838516,-49.22826174971459,44.12418094046052
-1.0909640318390983,-49.988096557892995,12.362527718003413
31.27995580176656,-39.00723477817327,48.49153179432183
-27.498420407347073,-41.759272923517216,8.234512318478071
-41.36719473499868,28.08478591260218,46.96448238998164
48.77596899166624,10.99567410048211,67.51736072201484
-49.03197451026393,9.791091646227613,26.615532868147906
46.96995194445812,17.14128391735273,60.8169414175451
32.997013502399284,-37.565903422152374,76.592206911443
49.88860130025258,3.335784810870791,29.72462192265072
-30.140879846597237,-39.893951447218015,42.909983232732976
-37.27568370019457,33.32451657088289,19.188395193746743
-37.461123267183225,33.11592130019794,75.07195832259077
29.093959180550645,-40.66376199025925,26.247043891539835
40.53143189721738,-29.278029789608954,50.68991420977722
-47.87868572425334,-14.40942237975483,18.957168263771962
11.531917915128382,48.65197703278605,2.4711453088636315
-5.378413042243374,-49.7098850647135,23.45282684855514
-49.02112377651536,9.845274180415739,96.26848945192292
-34.41230137593002,-36.27386819753533,77.62263130968
42.375496786987746,26.53897646963784,52.59331517942943
-23.16277570772378,44.31123809502146,82.6457140549479
41.66910442255307,-27.634864512466283,44.57320078449951
45.31485119914008,21.13206712084251,69.96618004885362
-44.77697247506571,22.249106408285424,82.64146523464245
-49.55852855980579,-6.629649084749067,58.021934627891326
1.769046916007082,49.96869493001559,80.41946273483126
2.894541886199822,-49.916145957686226,51.300955618558284
42.253072086221216,26.733460293732897,52.799321278212396
-45.61677804382971,20.472165515645273,62.12780638722948
-49.988613853272994,-1.0669981388753085,81.92986773806084
25.26755817861952,-43.145689282824975,57.11930290345493
-49.85959330047437,3.7444566910689163,86.72730917440335
-37.155800990505796,-33.4581298454341,62.72417403731514
-2.1972853363351184,-49.951696038780575,91.82162562969751
37.82747880540723,-32.69681708097084,49.13942516275276
44.01701108239761,-23.71714011789968,64.32502613791668
46.79199539391002,-17.621270302004437,23.84752849962123
-41.35573676386646,28.101655408850633,40.98292578412674
-31.714646883970797,38.654639734772346,3.7624976191988457
-49.57021235757068,6.5417158930472565,89.32160013907433
-32.35116886098404,38.12350814560613,66.84040254897496
-11.202286681314046,48.72893158186062,82.72180621805393
-49.6240795416924,-6.119700126622645,3.178441538253418
-48.13500502104628,-13.528536196641866,68.97397052418883
37.65526778949021,-32.894996697093326,50.63709003792998
-19.504206614867456,-46.03896093880226,16.59443051352314
45.855003454852934,-19.93285373837438,94.91607020231916
28.333306057323053,41.19737573999175,98.25426560652808
-45.59771338686535,-20.514593193365553,94.83978531545777
-23.479378931913576,44.144294817921974,9.411547940830367
49.66092790114545,-5.813109322663123,96.20339484533493
7.3730598145364565,-49.45339208761384,50.596526765794835
49.953369718609544,2.15890105282838,47.06830656095801
-49.84933640756057,3.8786156971084327,95.10944428915053
4.338739328596755,49.81139770211721,17.969359444640652
39.93296169839087,30.089176957750908,90.91901214041647
-42.73181172519895,-25.961361032930245,69.75432261160822
-30.555884273556526,39.576987458130525,41.9398082250549
-45.20504919808958,-21.36594315723742,0.8808251320321259
-49.47087714905891,7.254813168009322,88.24769007710348
22.121885240035514,-44.839962014108565,19.71003240634488
49.876922272267365,-3.5060839473976375,70.72592287967308
0.46247504636859676,-49.997861122566896,24.938498554312748
-41.88501817253785,27.30650568429023,18.41403953848284
-10.244418980389408,-48.93926725804379,17.875153491401953
46.8566834151364,17.448530578065345,49.63511494947258
46.11721964280683,19.31843814642147,41.298829152721964
-13.185759975909395,-48.2300293785698,40.212872530193536
42.515599537936,-26.31394679499554,33.54894447375636
-47.68047690687714,15.052312843306026,75.00908200491973
28.09675860801482,41.35906376748566,94.15573385988691
-49.99654823877627,0.5875067724863378,86.6212929148073
-46.83516214293398,17.50621566887268,34.4666078854283
35.44988457787237,35.26054003295365,51.266236767615936
13.400946094799393,48.170682409161294,90.85632166531802
49.915327369551,-2.908624002952739,12.492009003918714
49.566177554364565,-6.572217483407454,55.31370620106062
6.603927213736563,-49.56196268667807,23.27551891778844
-48.85143696790056,-10.655379212925183,41.12396696948913
-15.770043115523855,-47.44792661575971,23.732297826459625
48.207120619691366,-13.269269820096635,32.16326617903963
21.455290098961164,-45.16271168529873,2.988344093886275
-32.99247609331947,-37.56988849107412,96.27319590197472
22.90885042172426,44.44304863929864,3.246065807931553
39.24294023366316,-30.98373188976985,55.12088272390968
33.41273673525003,37.19662651183401,16.794563048234
-44.91668446260014,-21.965688172402327,24.692702394302668
2.39243112192757,49.942729934664484,63.67025328283034
45.311296055942975,21.139688969582473,6.859498932444197
49.568662056139104,6.553452675061881,99.89286016575258
39.19024342781838,31.05035941931008,53.21746156620406
-32.548829039482136,37.95489070144406,45.55149754023816
-35.98837177574683,-34.71076341613115,4.63389261815188
-42.656374621110416,26.085124193369047,84.87133992266342
31.69168131888457,38.673470689637654,3.4659265215406743
35.32335815502193,-35.3872910612277,47.29047266641347
35.098306834971005,-35.61051610575488,78.43354941375232
-41.798940267978104,27.438086530842465,76.86818587715227
-45.14467407069223,21.493217605816227,5.742337693350996
48.46539554469044,-12.292495055793193,4.496236328144365
-49.82833471018367,-4.139693226545308,99.67015573452413
-13.766277972168787,48.06755236948289,28.33793233536175
25.81223116445765,-42.82205882851269,91.09397529864302
-11.854512196108292,-48.57438152557704,19.214572535459375
49.175744076584834,-9.041360213719585,71.21363284955055
48.534394381781496,12.01717778822034,23.810646971996473
13.172626283199298,-48.233618118519445,73.64468846624797
-4.177184797040115,49.825205741385325,51.71614275982489
43.688552749325744,-24.316873949366556,89.62061046278707
-34.189936641213684,-36.48353371686731,59.75787079581559
42.80806396604272,25.835434184065782,1.5498573062590393
14.974934380920873,-47.70483560696037,8.622137837504296
-35.59048147502492,-35.11862224484195,95.15645203452094
-32.09519201822272,38.339257286929964,0.4391618101043715
-49.88288804843981,-3.420157883317769,38.01879443528563
49.77187272996472,4.770815962934829,57.06331066004336
35.699900165828176,35.00738676550853,70.55550774421647
-4.169554852932262,49.825844823027225,98.85856014151312
-49.740442607478165,-5.088061439504318,86.40384378504706
-22.671897691428015,-44.56439223269427,0.7583135350047843
43.59938486428055,-24.47638942851547,15.293890953942347
46.90254141423271,17.3248840944517,91.86017686733373
-44.53912549110924,-22.72149423975508,47.416617655329475
-30.617302626338816,39.529492532629185,15.152491032487625
-25.133900006520193,-43.2236864515539,59.38074912795865
29.12533937723038,-40.64129188597668,90.1320464433147
-16.525482699144224,-47.19013055248189,21.102200451355046
-7.629751497464825,-49.41444011710477,59.971485418313144
-31.83212224141563,38.557956294487035,75.69308935695373
35.17425943417464,-35.53549596188826,26.033845654508724
-48.579139273100466,11.83500010497285,80.25460409911716
-14.740253125643399,47.777870795923505,70.72026441183283
8.185346658120386,-49.32545083510537,59.82784844584157
-1.921050319331687,49.9630820273389,89.08664834493078
9.071495862863479,49.17019384556106,4.7016252322035985
3.6337885363131575,-49.867780990067715,62.72640478591273
-48.882330433515904,10.51274328558273,50.84357329692401
19.86596702957552,-45.8840206823663,7.121545488738812
-8.729430252216416,49.232073361495644,17.27927904168616
49.38729541686652,7.803528138422706,23.67857509857012
-36.04815252532292,34.64867529229733,46.3480134660489
36.508427273077935,-34.16335372949177,44.307346203023315
-48.613484065630516,11.69312477487038,37.89204134763049
49.26571284627273,-8.53753698373237,34.982733004499025
-48.847535056780295,-10.673252497557618,50.64937876600107
-42.79101274329586,-25.863666182563747,3.839898463313285
46.930235940139525,17.24972331960245,52.625384666612064
-36.55737969844008,-34.11096582602259,24.894860705255706
-6.519687179468564,49.57311447833264,36.86443641938556
47.15238505462964,-16.63287659005318,2.6391748792427894
-46.51068379434317,-18.350920766616134,75.21389376838674
-33.6881254088053,36.94739783043735,37.288913100352836
-7.728534008003132,-49.399086652357646,35.05349475169716
-43.83775847735732,-24.046848685033275,38.0351547991407
48.54687915830574,11.966642135071112,15.382203508827374
-28.304893552204724,41.2169018850078,55.69438607083327
49.8784230091192,3.484669012025203,86.88639143940969
-24.25588063251249,43.722445662854966,59.07057324841327
35.02554262405944,-35.682087437399105,46.29468811295497
15.147287044389438,47.65039029425543,92.31672560491813
-28.612377074221325,-41.004047094921916,42.99165725533641
42.56917493994852,-26.22718713343196,89.10524515959271
-40.46689657216414,-29.367163326030827,13.098207329953881
49.37687689905954,7.86918214906228,14.486397342379531
-9.67661232638088,-49.05469573735968,92.20363002373753
45.00348009213101,21.78730776386031,98.07879817208776
-18.03404784191631,46.634462776314614,12.119867009295483
-25.712637482513074,42.881934117911044,33.640317499066754
-49.608001304536195,6.248696389578796,8.737916016552328
-46.993878235027104,-17.075579300025097,35.41292402579443
49.97118707399182,1.6971925100330756,31.346254578314394
9.907439737820193,49.00859759104989,2.5754313231908355
6.475838660409526,-49.57886156059199,0.6476587531067834
-41.60908458505885,-27.725152479173452,50.01445207849399
-47.519111746212644,-15.55422832708056,52.62075753821651
35.63642592929943,35.07199947230776,1.7837665747415743
35.23553103770762,35.47474245841318,45.836816944777425
-40.93104494907705,-28.716712196500392,20.170192448367764
28.694875916211227,-40.94635632328279,23.75402065738339
34.8263537499716,-35.87652553525549,69.25776842001183
-18.036232793258396,46.63361777331232,10.187875141161307
-20.711527449011115,-45.50859952502229,13.524106986575557
-1.3521888797421215,49.981712508011384,77.959011956281
-42.76704702714811,25.90327563412979,58.3642009941874
-47.23275525586701,-16.403256717474335,9.411158316633806
47.39265897131245,-15.935365563076273,43.35755818304513
49.36320941647839,-7.954467682057634,58.45259799962588
7.868118058814991,-49.377046471134236,28.122037153245994
17.11298098836722,46.980271196447795,23.039505638568937
-45.58923280769175,20.53343254319847,2.68280792203639
49.55289571240634,6.671620981094578,65.70410375653285
35.34224320837207,-35.36843006128882,81.52960808161829
-46.67997342422897,17.915916976623798,40.054792061113076
14.700320264879755,-47.79017246369766,31.992465456035625
37.361324176522345,33.22847356976854,65.03246780886475
47.51398873888528,15.56987071626103,38.48932358269212
-48.42503413181685,12.450544941181205,74.1475795423453
44.089513677713434,23.582086075297074,64.78680004419721
-4.969805909459958,49.752397220860594,3.478245273236591
-49.99004004396203,0.9979460922679342,93.03435217150677
-38.521125494169404,-31.876682554219027,0.5975823957353299
46.11109720206928,-19.333047220273325,43.39319084348138
-15.043252855601885,47.6833361198902,92.72468447448026
26.524948476757437,42.38427902306896,40.46844051902316
49.87665543454855,-3.509877870142788,7.187263472181138
-46.967075525684045,-17.14916372785248,29.193362021147372
42.53199432200824,26.287439186665924,3.380274213758372
-46.62042384960298,-18.07030935217683,61.3450486539601
5.060908809525468,-49.74321262264499,95.29077124743162
-26.513962389869377,-42.39115235976244,49.30605638334502
-28.4098318889894,41.14464062352909,50.81993755486256
30.80121480993614,39.38635761570459,73.99034062129863
0.736449985532025,49.99457612000336,61.21676559592506
41.41600264183928,-28.012760042008743,22.79192521072432
3.507454391298869,49.87682591838577,0.20547355015491098
-12.969873883540004,-48.28853250457159,81.028050557481
15.169507191355668,47.64332116437107,75.03605194344351
-0.09315073711217665,49.99991322932647,26.268138262481855
-11.002341367055797,-48.77446549622838,47.773149910464866
-47.80797989950347,14.642303709753875,48.78649665457381
5.491886693052074,-49.69747660144001,43.1199893144713
-25.921892243936938,42.7557657222242,89.40173679137239
-42.93767960159322,-25.619439307504866,81.79215448327261
39.23327909286326,-30.99596444089937,1.9057002115145494
35.623751285987126,-35.084873440189725,47.34872098450739
-18.247822518716823,46.551229557611165,8.388049224125227
7.496369114439523,-49.43485056212952,0.2426236244546187
21.336540529958747,-45.21893450993099,38.50987470216717
-34.42789309328716,-36.25907027430779,49.72712170253647
-40.895310282155236,-28.76757892013592,53.48435284838858
-43.14958991907173,-25.260896457092404,65.29869976953813
-49.9071534589189,-3.0456581600565213,95.24754065693804
26.93455974658057,42.12516458434176,46.65410636754477
43.678041030033086,-24.335750076353634,45.21153143541879
43.85450290487831,-24.016298111199823,40.28442049038915
-42.375539185104785,26.538908771304982,64.83343914212529
-43.69392299684676,-24.307223065287115,59.001137346688324
33.402941099304805,37.20542334010425,2.6774441662943738
4.01280293106561,-49.838713994608966,50.027848373862405
17.070310409278306,46.99579239177572,66.36305860674312
4.119098890459322,-49.83004138399462,10.028937311664777
-49.397257696678565,7.740215245581379,38.42351497113747
-14.217586673772544,-47.93600138907881,67.45050875340372
35.98097805096488,34.718427650110876,13.774841122317538
-39.56963912192931,30.565399715369036,74.84043625363972
-28.12584600817613,-41.339288652858585,85.42384932440453
-49.651393156844584,-5.893993347845481,90.42237525591925
27.07348640025473,42.036012348166686,32.379189518019636
-49.93460946725064,-2.556321058310762,0.22246382661361697
-29.569096262004958,-40.31958018442509,9.594801523279518
-42.734848377913856,-25.95636211252866,80.04814902436033
-10.202685292999684,48.94798476762867,68.11723417873094
48.69107640764935,-11.365697438540803,81.51153269058203
39.70182182132052,30.393508255351463,75.31522836459742
49.894355569566855,3.248581582419115,88.5483656411076
-28.711658072414046,40.934590394100454,74.71807504402685
6.233121078646109,49.609960709709675,33.18674239868119
-14.815429161583479,-47.75461295789237,64.77227179381553
-22.072582804065004,-44.86425178644679,45.653491951058726
6.415531808635534,49.586701358452814,43.08111943618111
45.00287447370145,-21.788558674319656,16.93964610378561
19.735864734667167,-45.940131074855685,99.34813706712481
-11.423175625091602,48.67762379819205,73.00472644610849
-20.981848709160385,45.38460118526883,16.17884807505807
16.052454968525605,-47.3531275575696,84.521718393682
14.931498096249909,47.718448891405565,80.14723069206117
-41.183325184241234,-28.353725095109496,98.3229149085435
-22.51542916264348,-44.64364960016132,21.99432400775505
-49.23098704356157,-8.735554631314086,86.33555289221793
9.361899391851383,49.11572904657787,68.81900856662544
12.39287759430022,-48.43982436934192,45.477733485117625
-48.725111515594214,-11.218890666768612,48.06381164770974
25.44804142398704,-43.039484054563665,53.11535577262544
15.07589943354649,-47.67302440866945,31.69006300650694
-49.34015801349831,-8.096221785686113,83.1996291455219
20.502862517467392,45.60298925059442,89.3936542316453
11.9491114794566,-48.55119704859519,88.88220898847943
34.718069785162655,-35.981323355215494,10.187091291992301
-23.683232219886353,-44.0352644095495,64.10887144023823
41.18316921038243,-28.35395164327203,5.172573281568738
7.87320908445031,49.376234958859804,16.82289090079746
34.277108503835066,-36.40164601520538,29.826672064940063
-39.751534283800375,30.328460595352407,49.89163300110708
-3.8913209517783107,-49.84834622382423,31.02417229678617
-15.70012416209286,47.471108068959886,50.65488641604783
-16.934576725844657,-47.044873377621926,30.285643776334247
-40.9164967867546,28.737437093441375,23.618494478775688
-47.685911922134004,15.035085771437352,92.83162809318124
30.254291443571784,39.808012374990774,18.162724051316125
4.687215267611869,49.779815317406175,99.02675151557929
40.00109073819675,29.99854562732251,17.861164887420156
27.499748714923044,41.75839820462572,63.929604013342875
39.9154779068898,-30.11236662012125,75.21484466912361
-30.00516909743395,39.99612265500738,46.82002837161414
37.85215879783762,-32.66824259649246,22.143316562648064
49.62872722596571,-6.081893942736074,80.28787670260596
-29.6176716725077,-40.283911487087934,50.18777468216997
49.99114065523641,0.9411992288402695,5.854974709045013
43.04658498988398,-25.436028005738137,79.86497346154322
-6.974959072527624,-49.511109318379894,78.47159966456647
27.469412868388854,41.778359908761296,88.34439777379274
-26.57481429976546,-42.3530311185986,31.72942018868785
27.280992741459205,41.90164000418659,54.23650240911806
42.07997941945562,-27.00509826048022,97.65499257901806
16.420339519374487,47.226819182202696,97.43938809084179
-11.968602782018158,-48.54639582344159,76.98638652002721
-49.712505832082414,5.354135214502126,1.0786705102993177
-49.39375948622858,-7.7625075727244255,30.84137207850667
13.219723313712151,-48.22073117974151,18.383254634834266
5.11817270138845,-49.73735324882861,11.962742057990571
-39.71203168528598,-30.380166876217825,58.767043722688264
-38.938949992172965,31.364919472350838,66.64590621888419
-15.856454452319435,47.41911905762821,67.18067300791634
-36.05381713819196,-34.64278091848019,37.35443453843958
-22.408062440759558,44.69763682400917,66.05906595758239
-27.58772726176051,41.70032739116943,30.60729663507177
48.89826604082017,10.438370476332647,91.20553499363687
-28.024583309320334,-41.408003216032576,42.19580881717893
46.75713173701334,17.713571964106492,90.27288246873313
-48.79257059179432,-10.921769776220685,32.20044646357073
-6.569836167394291,-49.56649324628078,37.42128171957088
46.58270110253088,-18.167332164967654,13.825783428982707
-44.31153475301418,-23.162208181268397,71.13628943724741
46.09457669782009,-19.372403027213252,15.487145778609657
-48.89782699417258,-10.440426966746475,83.60445065950789
-48.074128240461114,13.743296326562229,12.50998678397477
-35.87867066613274,-34.824143797531995,52.067011842889876
-28.665563179863934,-40.966882815040115,88.02908784564815
-16.5227145433601,-47.19109984010371,4.146615553625677
4.539737349925754,-49.79348134840231,43.402388971870856
36.05169892357893,34.64498527526917,18.87398453761434
49.92374407667311,-2.760394422332885,14.808748144087069
-43.067222555642495,-25.40106968894732,21.123480196137344
38.307119214255565,-32.1335434943738,56.776444591492115
24.839707335012502,-43.39342046337124,54.850801940846964
21.13596844173065,-45.313031657903515,54.590182220133286
24.448066128920082,-43.61527327159547,22.069190987731023
26.405907962138535,-42.458544778349015,11.354829933645028
1.9774681774536025,-49.96088089302628,91.42394485285324
19.74690472192385,-45.935386728569746,84.41988897813413
-45.40961641177464,20.927654845574242,14.181132745122849
-19.47609114364678,46.05086181348144,3.798590791734946
-37.31402845993962,33.28157568521683,89.91818454265604
-49.80249750809583,4.439734446575414,41.81658708655062
43.365582929118915,24.888274693471836,72.03028599962278
25.07599585155671,-43.257304955957565,60.51539669182473
2.31255231967541,-49.94649238704119,37.059206974705695
-3.16112759273807,-49.89997266875434,93.82261768363871
36.26969236662052,-34.416702567659044,55.52081523212309
-32.757931479000455,37.77456717445099,52.265199257077185
-43.09802646243463,-25.34876949761633,55.84955573454595
47.326979571080656,16.129383270246702,1.0728902515523941
32.95953718986109,37.59878865376069,94.41317246256561
29.44562332966203,-40.40984121136413,62.62167347368893
-17.301587532045097,46.91114013612312,38.15696716747271
0.0936173415291313,49.99991235785684,19.85444972007091
45.29424215157209,-21.176204284874807,68.31894530922087
-25.275003237575465,43.14132834464593,10.596149993256033
48.10870918877783,13.62175099572751,83.90792936539326
-47.325799448349926,16.132845582059037,55.43855665773968
31.743552320300513,-38.63090584089822,4.544785281137253
-17.674846141030034,46.771784377880174,53.076714518669256
32.69513230608621,37.82893500334787,78.0485822579896
20.42826357189419,-45.63645524618691,79.14211173596584
49.967242403210186,1.809609521094107,55.17168219504589
35.41919189758852,35.291370692023285,36.93941017921796
-38.367258639282994,32.06171337446526,29.894939818342447
46.04573381147537,-19.488211764108925,52.36713065782558
-36.93093334629706,33.70617394738484,3.3369899057214547
38.08364218303593,-32.3980894201261,94.71350274575985
17.611144964035084,46.79580721662724,43.25443688883682
-12.704640219376476,-48.35899209967265,30.90820794447794
-37.10521726279659,-33.5142186523968,64.4782437631593
-9.54515868640105,49.08044361710092,29.091715308682964
-9.269881259312971,49.13317923194303,51.505601127599135
26.53848469260164,-42.375804773721384,93.04159710804963
-48.99183264366585,9.990011722467445,41.848436403188884
-43.687373882439864,-24.318991822357916,58.13029380940691
-45.894951500929345,-19.84070126601737,26.979741300792448
7.548500366104234,-49.426917183078736,17.18608829124727
34.14452394265267,-36.526038448340095,86.12805157642546
32.13990363782194,38.30178317195585,61.90796726234365
-11.39857231952389,-48.683390895423294,25.570666276612
37.00115292665985,33.629074951564334,85.7419000630347
-35.57153113533741,35.137816845782,55.47026624201108
33.152655549084926,-37.428617794993826,82.71074002575483
-26.566529796876416,-42.35822818003224,73.1362504530795
-42.156980106787195,26.884735971847462,55.21713613940733
-17.700209624410018,46.76219177125836,29.98087382961646
-1.5518904965486997,-49.97591055585403,96.05627742506147
-46.856574800628714,-17.448822251174608,56.05661783434002
49.15181897052152,9.170533893350006,26.35881202891097
-29.85057319367863,40.1116352198316,98.7745647878423
-49.03565920577478,-9.772621258143339,30.104622622370623
47.187690522264944,16.53244879547332,41.153088502925605
29.62655924016789,40.27737562936323,99.03534887807756
45.77643009813077,20.11264397017328,21.422635394118583
-19.8717253438011,45.881527130867525,42.63260520954055
-30.404818026597358,39.693161133493774,19.008663079476218
-46.81783275980437,17.55250795969023,68.8027962963143
3.830076694092148,49.85308929762901,65.69547776605928
14.706477485041994,47.788278060440234,55.89657320693539
30.069972616356893,-39.94742478372726,22.715151725325132
47.82555597313887,-14.584793308791221,40.37426558507149
49.895787137752784,-3.2265191622031413,68.9472696136061
-30.246452810958978,-39.81396855821374,42.07280982245747
-49.7557124136515,4.9365050602633564,13.075472435262359
-3.104642940421897,-49.90351883597477,33.99799582284517
-27.099344857794204,42.0193468330761,81.68684731370544
20.072758179880662,45.7939338674025,62.124056233087956
7.835182819500429,49.38228336341896,84.30961534242046
11.506090450004766,-48.65809164523727,95.87927760124289
-49.999479189716276,0.22821208804241436,11.676305406060617
1.8014310147891053,49.96753792512651,73.96990127098412
23.060765280036986,-44.36441259274196,36.520949066155296
6.536075727539388,49.57095635635721,26.094277484662378
30.146724839297846,-39.889534736114214,83.97788229795383
-39.92255743488539,-30.102980049461504,14.194736757844028
-49.064928592857385,-9.624592572042015,14.915950730923877
49.87803854161384,3.490167795577216,76.74767894572074
-16.514688113890088,-47.19390931572566,96.77475422357787
-1.549418707675521,-49.975987250561694,68.99604558073611
-48.64999736964871,-11.540266718459035,27.14152228911717
28.208797624119747,41.28272927752544,28.941254762924785
-16.825552237942134,-47.083975956670024,17.615807116700687
-1.008588876451887,-49.98982644977173,25.791496255099666
-0.7224339236080581,49.99478061984091,41.764591006096765
-48.42873849778949,-12.436128316832468,4.141348633017261
-49.60584569838832,6.265785868323993,79.025495093643
46.65884445447414,-17.970871825629043,35.1865184106664
-2.401441412746254,-49.94229749562136,12.772882108294436
-49.99492362897797,0.7124684783624524,9.020790152025915
-45.20854789020334,-21.358539221098216,57.09056563583361
23.339571365521994,-44.218371843315374,92.1747664571844
-18.740723992443126,-46.35499179418616,57.33949950718319
49.98123878213098,-1.369587457450499,64.17672035039476
-42.78730639599891,-25.869797281287504,0.30728042619779794
2.664381671492356,-49.92896023660632,76.47782249589245
40.66626991613161,29.090453607813156,69.42537222725494
-36.9070014574819,-33.73237678280955,39.12195944112528
-41.971215795156766,27.17383014365813,18.557397291378763
-40.03797940798824,29.94929389694371,8.577714036900586
-34.32668688873758,-36.35489743133065,88.52996688931091
46.12350989757717,-19.30341510531494,84.47053338812383
-34.316654811562145,-36.36436720945504,36.458297070271506
-10.239994739391168,-48.94019317225098,8.91431530585426
-49.999950234087024,-0.07054494185163095,0.6755297126337045
35.49967078422384,-35.21041570631798,11.224003321643817
9.712450465690946,-49.04761264273216,43.324772638640695
-10.87929627200745,-48.80205848758723,84.41833872516926
-42.28752526206432,26.67892814957662,27.67715588941314
-14.526515598329679,-47.84328944137813,16.726375289178108
-49.9837367083662,-1.2751724074512854,50.016725576988954
0.35723387028627823,-49.99872382333294,64.51778185093698
33.24235107663533,-37.34897715999358,70.52163121571068
29.072564938986247,40.67906055784017,6.6413766257060525
-20.56151088672922,-45.57657589217202,14.947942688939808
-49.96971167534857,1.7400905386021075,82.0530363990554
-5.203787189656099,-49.728468696359144,32.12988530349728
47.61657532672851,-15.253253887416607,6.8539865038956815
29.328103363760118,40.49521395281919,60.0087908497238
-15.53406108473614,47.52570826632346,76.36731227595031
19.558702762429572,46.01583582041002,66.78689990435888
-34.98258927553462,-35.72419974721968,36.30892146158883
-49.35622809915183,-7.997671400132397,59.732234190353076
-49.99491915972206,0.7127820233819471,67.40407041063447
37.698528321765096,-32.84541006553388,34.42391279315259
-42.3628478270226,-26.559162712414842,23.374789576127398
49.94522207699697,-2.3398272755599705,41.0536934805122
-46.590484489258586,-18.14736220656202,99.8452444154315
47.32284773157974,-16.141501868590737,44.00648946866872
32.64149486423097,-37.87522690398546,39.294613757223296
45.40418658318832,20.93943267423981,38.18512932111583
7.494092413945312,49.435195750510054,89.75827134209491
48.43969380130577,-12.393387932108771,19.759829024600105
49.43664600792793,7.484519455971987,3.4494916994394886
-14.836477830288992,47.74807771619024,9.839225923990359
47.40070485425717,15.911416634592943,11.643719239945682
-43.13873314803283,25.27943239835131,43.81064673348549
11.043584270286901,48.76514376545067,3.853202868410799
-44.2507876171305,-23.278053940645684,4.1296105173318605
-25.066453979876652,-43.262834914909654,36.025257027999935
-40.93444851289773,-28.711860353256892,79.65499118004969
-1.7303560170204888,-49.9700497103451,36.1281490782683
-47.95856696685211,14.141281925128336,8.8258698845332
-6.972230187762057,49.5114936778205,28.762208026660918
35.76886264549856,34.93692123023233,37.79729001526528
-15.389586001215813,-47.57268799123276,89.40903059457715
28.137261748316217,41.33151946525486,10.632313985447784
22.46893426581592,44.66706832733085,94.07334648433041
36.61097497782837,-34.053436114037375,87.42913671085691
46.65563523392226,-17.979201898838323,43.87287211253869
25.38026910485466,-43.079483982113345,7.125373520791167
49.22549531580987,8.766448021472545,34.49572828752249
3.6048334382881255,-49.869882453061784,68.36231229092867
43.08184145293813,-25.37626720035675,2.952200572633523
35.13174732056416,35.57752563352366,85.43678185024734
39.65874320084441,-30.449697662365672,66.93418076167896
-47.925779874681055,-14.252004189012036,56.75036218455056
2.3803425015023993,-49.94330755542269,50.28437645121819
47.289405497337846,16.23921573563063,55.31329301452783
11.012440850438189,-48.77218619782796,10.017795359331238
43.453459953290476,-24.734526841801127,94.96527588313643
-31.63886202814886,-38.716694197255016,30.24785760821991
43.443188848030886,24.752562346438488,27.23609762527135
27.365096342963508,41.84676214643524,59.60485730779348
-49.47865886281049,-7.2015496344623395,47.16712429802424
-16.06738462281735,-47.34806386096957,28.576528363526954
42.63000465721062,26.128197467988507,66.65458770170986
-26.630370092164192,42.31812128101113,40.09778558023114
-38.554761141766484,31.835992104869813,22.15156221987319
48.09276024651481,13.677953497188277,39.29074966188381
-34.42150324981672,36.2651363436408,83.77007942554805
10.703279151598041,48.84096452162843,49.14860503463956
-40.67776264820251,-29.074380920949988,6.905485378457521
49.39211499239354,-7.772964465258628,77.16059902989795
1.5493333482736764,-49.97598989690877,2.0140435946024993
-40.10164977687805,-29.86398642466569,3.7810071203866036
29.482668383597783,-40.38282140939144,67.81363406245681
18.531628714782915,-46.43897864054972,82.58558334708724
-35.5356350912171,-35.17411887544392,64.63995734099771
-43.638382703282424,24.406793215042843,85.84582063505094
-48.364627028601994,12.683172015872902,18.505894046956673
35.156555766967536,-35.55301093584201,88.0051079654868
28.269934630978927,41.2408874293483,21.74864903788355
44.94531849994474,-21.907038707651132,45.47277243250806
49.948699184040876,2.264387295096592,55.14787651740395
-34.67248780517786,-36.02524933154235,51.76636825633971
46.090556159526905,-19.38196669343687,61.85124723843337
-19.79986296532158,45.91258462071687,60.87787242411073
-4.110446597495313,-49.83075585187465,18.282514346720212
-43.00709253553424,25.50274478639495,16.110427321960252
-29.434151699176603,40.41819780432892,22.52078571272895
-46.219401935071254,-19.07267377072055,73.14623487933292
-27.026197930876695,42.066431098930614,3.840553229071808
-41.10737728157624,-28.4637231055628,91.60820825898229
-3.8980446280993717,49.84782089597644,96.12760995804884
-41.224540716719645,-28.2937668523568,49.162651016565306
-1.578811652905147,-49.97506732126182,56.581986070232794
45.80804405044024,20.040536426775773,70.42518378834708
-15.052057040070713,47.6805576609844,30.652233208315305
-44.52475188872328,22.749647673043917,41.0856676332842
45.41470181719154,20.91661681189334,88.95848129021651
-49.060485795274886,-9.647213770391463,25.597884154454942
37.33013760053783,33.263505929545545,50.77576332786482
6.998533246006867,49.50778254380352,89.80686493500889
-37.140329535292764,-33.47530316531666,34.78754013149975
49.9841771782124,1.2577884627674905,80.67260475886704
22.610529519374325,-44.595559810966634,46.95947386600273
7.278817942126269,49.46735094347969,82.39763201013919
32.76363571149156,37.769619735505344,75.33118222265554
-11.174136107316658,-48.735394553190616,13.961979393970802
-45.89011888928242,19.851876191622907,44.52935614236087
-31.803358314232312,38.5816847731738,82.38919504706065
42.35080080956335,-26.57836847492126,41.76723140941348
31.034935435059147,-39.202458883872445,56.523855301777125
-42.77688133690912,-25.887031948216784,54.53241805643497
46.15498730666282,-19.228030235096742,32.16982789023416
-16.52428159209125,47.190551150259665,1.2003465903040245
11.655528231943874,48.622511881168364,37.12804060291861
-48.27833810947514,13.007769577725464,3.983593553958209
-47.92722887337112,-14.247130676718792,39.201877089031726
-0.7231930059591308,-49.994769645195205,0.016559667503301956
38.843855075247205,31.482613025179333,94.39462704025756
32.19050334204635,38.25926678055531,51.66370254414154
8.421076300396768,49.2857532553059,49.15008061314643
-40.32165221353565,-29.56627069433472,62.44700050475043
3.5621420742319025,49.872950021459395,65.6697797827442
-11.117371129693664,-48.74837493870594,84.16641673179502
-14.327096422572144,-47.903385142370894,13.908668479555953
-10.43114852147159,-48.89980716243164,4.5676376768918665
28.651239394338447,40.97690180050596,59.75390499120326
25.51033116983251,43.00259298699872,98.5005444789554
-26.915772619815186,42.13717105215308,9.379678208524322
36.421916950279936,-34.25556838919639,6.510999139862772
5.76351514969914,-49.666708096260905,26.86209604174603
44.721418952011945,22.360560970571083,36.46133427661608
39.888026524278224,-30.14872037082962,63.73809209133295
-4.35438048044299,-49.81003283106263,4.236816210135219
43.41357575597124,-24.804464115972085,62.56099455287322
36.458991945907066,-34.216105948636,7.311614282389856
28.841863858838675,-40.84295397186907,78.47708371499292
-44.698603411097146,22.40613427384238,31.982822938715906
49.51831801320749,-6.923595969064817,87.40092413636255
49.95161734129544,2.199073666067725,47.373023023405615
39.12693392556232,-31.130098643992127,67.60340214897302
-47.85196707658964,-14.497904914192974,73.47149148525736
7.155820244370123,49.48529313473108,24.161835566474032
38.797165459566166,-31.540132407823624,86.34008734282489
49.16982593469279,9.07348982211433,75.788041199438
49.98649332185553,-1.1621038611470635,89.97539567062711
49.99597962541078,-0.634051492790905,41.00177357215704
38.414693183240935,-32.00486443710491,35.6027232109288
39.52248788494536,30.62634407473976,6.3079003610921225
47.82739818968915,14.578751057786771,90.58186010138161
45.29284886058821,21.179184169649066,93.45313389144994
