48.97392311318239,-0.5706479707063662,0.18180099710791778
-5.306114852898686,1.294299274444966,0.13310906076938894
19.311432748528784,24.09911079091044,0.21961689300195375
4.629085732977502,8.88380321069908,0.20160632764145262
13.747742417524753,-34.34604106974952,0.22746608640956978
44.847873719765346,-22.902732610369114,0.24701145734948096
32.729448132380554,-24.824223371191746,0.18802414436817738
-32.36513157562004,47.742154342143635,0.2792747721021594
-2.2432009428962463,-29.57900950622509,0.19676591123760484
34.357744449679345,-10.741365799150326,0.1077375311986532
2.1709075866692293,-31.988992363515674,0.22405622262837988
-20.404437674772236,-4.3774120556684135,0.15437029256624143
-21.339687448483122,4.710581560541774,0.22005328132072655
14.238429683296358,-33.385662910746284,0.20878205872771996
-15.844017254675308,-5.614288054571705,0.27455668083185675
-16.530255366658366,-32.64761638349628,0.18643263528012052
-5.506637868530305,-19.70492845700071,0.18570927998127434
46.93604456186861,-7.7981356174742045,0.1348049162859699
-33.66739675639983,-2.156756421103705,0.14187057191277536
-20.870131770848314,0.22877631691648445,0.37097520460045513
17.10670408482301,16.17306876952896,0.1744835752052879
11.249227718761237,-0.8764216170698919,0.24609592155818752
9.285323109573794,22.04893673072693,0.22411163419136704
-5.900032562852451,3.070020334707589,0.21257226036201557
-22.788572577009383,-10.14203047742677,0.24095244132453617
-15.967048150488678,31.428706221417517,0.18279106582868357
19.149973888620835,-33.73414404097252,0.17321004491169073
-3.5737516278531314,28.9003320360276,0.14187879830711353
-38.2758362788523,-30.62621605181826,0.2753660681559534
1.6859633947315706,-10.801707869533276,0.14067463331920205
45.55587253298659,25.01979934776234,0.18527875711735636
15.60446963841249,18.77995543012062,0.21520358652051205
-8.658436540427854,-13.842363654762488,0.2711488858436558
-11.186142214020245,27.751066231180268,0.22564778561772203
-8.578885813517594,-33.46992327079191,0.22468878860003147
13.571440728325076,-12.7179513987842,0.20641084400857027
39.73825889332899,-2.8211710608400384,0.12921590973093783
28.93545185697761,33.679832647021684,0.17964592412474714
-12.682311865654128,-32.20594325739835,0.17035246537550208
-5.483377636359887,27.88678393151638,0.17465398246289485
37.346551255144774,-12.018327608294333,0.29909071976797286
-11.097135608540972,20.346237016982112,0.1707107256569148
24.043152484035414,22.492833503518018,0.18943448116535197
-2.309381532476596,24.67380820332084,0.17840540010715397
-27.48758175346039,-32.32842497164371,0.19147413371273303
15.508105457735056,35.729286473482944,0.16307001047089226
-8.817557065412936,-26.101869305897484,0.3344499396623326
-5.808118710263471,21.298577119940948,0.09542231921672902
-8.51554408963077,0.6596394702585234,0.18273566221959342
1.4610838261791534,6.5990717847119695,0.1958113984872529
3.694652648777618,-12.455395516257713,0.3474018863681079
20.785733797419027,-4.551437546668273,0.2507824760035722
-6.320681099718113,-7.774258403076449,0.22030388214739802
15.833429727404457,4.005656107713033,0.1887675699113266
-16.300061698287728,48.00407772804935,0.2787989467360161
17.25893654476082,6.5080247349568925,0.19908867056717858
3.783667327811937,-8.42736612497442,0.09332038862257908
-0.49635696911489813,-8.687203944515202,0.20363368676460694
-26.619863759821012,-2.188584570661679,0.16558099449683794
-3.5361093418503677,0.2122080574699749,0.239907891429352
-0.23095535560607958,-18.695371179205246,0.14588072373270258
26.285742437242128,-24.29551340841011,0.21410719553381677
8.174662409823744,3.8997873673461587,0.29803997600180926
31.391025016499945,21.039970711641452,0.22690565408503396
-24.33877034197914,1.9171861420843892,0.2311760968274128
30.43568126205375,-18.840697826948535,0.11844609509504081
21.547582471415076,18.587697570077342,0.2652788412970929
-7.533593469895189,31.81606191854555,0.20994331803369826
40.100549271332326,-34.70319130431059,0.18796180645035615
-15.199474236359983,-11.38420259291889,0.25205335305383175
-29.629451394833612,37.32135308140891,0.2348381996463188
19.592809679419837,-2.43090605831542,0.18895648534066162
14.363301215892358,16.355928701647176,0.20124504778898397
-31.87310380442571,-12.444165117809552,0.18139345490730274
14.926889101881132,-17.311452380298505,0.12185202061763559
-34.37247376320934,14.059892401189533,0.2445067788158619
-10.956423444775085,23.964996634367427,0.19604231988359783
8.354247306482106,13.224496580355963,0.2045921014971667
-4.160837830567044,-26.766470436831774,0.11664440731193801
38.087908983046084,22.47880979248784,0.10677688637043176
19.9583014782911,5.3901159150558575,0.2019263016865877
-10.302913985521354,-2.1815146134664456,0.17264139499499456
-14.219562497117089,-18.10839120121461,0.15400706958347737
-24.712617262450845,18.885134031627487,0.18410842197568605
0.13987859690868207,10.488117654784324,0.29159947269196795
-0.5012255480605311,-32.031276733637895,0.14351243587721935
6.6258079485272585,16.032122338581125,0.1601927998407286
-44.643599913467455,-5.413187446197441,0.26142649161709397
18.323934756625544,-7.115287430537247,0.21361288883006616
-11.878403597929818,16.659776966735667,0.13657342076616136
-8.1904497937446,-0.1471830137884894,0.21417290272917636
5.221818749509147,16.96306685143518,0.24265054188928856
12.809731117633094,-21.22994275271597,0.11500330681686682
-28.011782271142277,13.50047693732531,0.26110338887948575
-26.99802655472218,-39.167240952441304,0.2362941004583211
34.70761975012393,-14.939439404767615,0.06827763782288093
-19.897294446741647,0.6950865853055868,0.22599262756595606
17.897523777777703,-22.97576773815711,0.13604071485107333
18.173816576314785,-39.066932570694114,0.1745457650621485
-22.18984733586267,24.326218960669642,0.18382453179470512
0.28521853305532574,-49.95530203675415,0.26996378203136956
-20.210624431927204,-6.022339414761375,0.20652971898154138
-17.81945581147976,-25.627558682623757,0.17103040918527707
-18.797583245712588,-17.051291912442426,0.18012183312544972
23.77178079634615,12.559126399215176,0.24288253140145483
0.28679813887714606,-48.418370694542986,0.20688858795019163
-22.42142019997751,-25.4474607085248,0.12362318669515031
3.6399759719649123,9.201486916086354,0.11096932120702556
4.337030935041072,10.004299234782067,0.14254510911255563
-46.26908626827485,18.781752037800402,0.2077115161067483
-47.307662395760204,10.153684395001653,0.3067441263948939
4.691294756695006,-18.882049479662165,0.18661685801110614
-37.51375227774328,19.794038052790423,0.24711825820833844
-37.351894964188325,-23.30742748431965,0.2480511084810651
-0.6923138333118692,-24.738422672207776,0.2842740757504869
33.849436554146486,-19.717794662593732,0.19659608461911848
-2.5850554889582336,49.11893398476342,0.26411031021953557
35.14965164909908,4.329780615451299,0.12895225761469303
9.116347595402589,-5.099906739104298,0.20115369300705432
0.13381775431129303,-30.568927623864166,0.23379839694308682
-18.713488650902832,-32.46565968582434,0.22707811050400498
14.49702203195963,4.449731083247825,0.15040349300009556
9.225612547502985,24.446480359541322,0.20050729177967938
-25.870476174683077,0.8060752206159307,0.12901994903909847
-11.3965433047681,-1.5829775854619563,0.20131681467090642
26.934773016161518,-6.912551018695455,0.19913571712218822
28.39016512368289,-20.476491843692397,0.25216183544926296
34.096880774162294,1.971713788500581,0.22341623627337243
-20.942580511594212,-42.41872560247705,0.20561817014487788
-13.186318813848288,2.5635224445470204,0.21887217890803032
6.633975396312194,36.69654554069389,0.24609202708198993
18.640445453301858,8.058869307633435,0.14088193444564634
1.2331242328468293,-47.745768209070775,0.2694304851090753
7.798037558873074,-17.993132911315797,0.2695217995101474
12.826700646160837,21.524130689277683,0.22407477175434612
-37.75227296298069,-1.7497961608255315,0.21557691851605407
28.494768703069713,1.2943378444100802,0.19790851653845912
9.415548439891248,30.06907395787649,0.2645226083842776
16.87325696148012,-10.509626963553853,0.15063224427461042
-7.623555311935946,-9.383179941158037,0.19500333214959997
-33.64094697980316,-14.768725653503287,0.25359771224027905
-6.818697362535999,-1.655346290026043,0.2058952911532369
3.3523502502922264,25.568326190322963,0.16087450907701334
9.962875732137313,46.69506509574254,0.2669019381419041
41.59687808509856,9.13955518735324,0.2646905035212469
19.113166040420307,-5.023516718613543,0.21531207988821122
13.69115582369681,-18.189253034389445,0.15999268254880653
25.480570799240866,22.153289136052727,0.14898886916944354
-19.226859173908043,12.489127446003067,0.1825643113601373
7.393665815983147,18.133179686851644,0.1833091635714423
40.37032853648842,-10.389733398906081,0.10672389035173446
26.376123403257377,-10.042930334569325,0.09547471030277122
11.901845476514454,-35.170414458022115,0.1692772110348481
20.939744040286133,-16.60170580907178,0.24549288269327937
-13.268321391713336,49.285542603197285,0.19806224312595724
2.666189453911467,39.25893959809565,0.19981149180820035
-28.88581180483451,2.174999251532075,0.15211988926085057
9.311054202992178,35.37145310457084,0.2269091725395786
-19.47366274638732,35.37795217476965,0.2227840349861655
8.440172954624773,-3.0577483258056484,0.2686532052882145
21.066817751218174,-41.05613034209549,0.08587196073256781
14.960453474672875,16.98640889062344,0.25254817475349606
40.68389060103384,10.998824265914246,0.09965762392410896
6.905476954102732,24.468510723127757,0.23904352505589982
-49.980235526218195,33.74755832361224,0.20957528904779713
-2.8062368555692716,5.769417063936377,0.1119001319124847
-27.16948151018893,-43.05176408090457,0.22472954120977914
17.225025508859968,-1.383275703398615,0.2668639207765446
-3.9429912096053386,-2.2147623307899162,0.203949720623888
-3.177756863443251,46.803460163209635,0.09400158223097702
1.6060649935745928,1.6356221189040592,0.13685672157994394
12.45481850645483,21.402106058691768,0.20036052835220353
-42.108670359293235,46.941773682111545,0.23941887450272684
20.135277277653046,7.62390467315136,0.09745058172233195
9.326573445081507,9.01763978961391,0.07083225573394131
4.596607297095229,36.05332815447608,0.19236465675965328
16.86013816092935,21.77202736382465,0.23389042353698178
19.56444040594282,-10.177766327066378,0.21608276764816872
-14.853635041381983,-38.492476518432525,0.20462839644879113
-18.56251095916196,39.43263902066998,0.20579323421096918
-12.241526609239735,-5.235496001087609,0.16711452001671387
-21.373939345490854,-3.2028860367924636,0.28488503097548346
10.41231962714457,-35.23951384665793,0.19639063584317318
42.86144771006364,44.773280875142525,0.20821675166815493
-5.675373209804048,-34.104061817304384,0.2155329454240434
16.817902707277195,11.170699049532862,0.21862251388490772
-11.798079858987345,-4.024721656709475,0.2149203648995101
-16.5720248138488,19.174889652141882,0.1983575029414425
-15.757312565089258,-43.83560612071105,0.17919946568159725
7.533099126278064,15.024721353032454,0.1998243143557037
-36.4673615548328,-4.514918481663656,0.18204879591419534
-3.631547999812449,-17.54816576458163,0.18251733854527014
-39.69936979234117,13.433160211869547,0.1724948082727569
-9.402338565016095,13.341117988698178,0.23163836117861683
0.7239712055982567,-19.17592962087891,0.131976648499825
4.517824383578857,31.040576235160135,0.3369284246523554
-18.590401495738394,10.817857723928828,0.19060889056633845
-0.8544044466652223,1.1291547455523718,0.17786571622776876
-33.589261683046885,-8.113381805848983,0.25011179743920364
24.223243076513228,33.77109271680743,0.12180608736954442
8.06011205635537,-5.523659305381966,0.1972019418599759
31.20970422841667,-16.867810041901187,0.15746208380874874
12.915734818975563,24.42665707822527,0.1822864011525907
-1.7773514597144144,-18.98174382014259,0.1659680031987078
-13.585319461262605,3.54750563862506,0.1680999476403326
-15.502138843417582,-20.986510819812867,0.09505354321114323
45.87967052706181,2.785431836730629,0.10879859920793668
49.60535827282681,-38.37387437460686,0.19128712695330705
9.249428424506858,-9.410010544619768,0.20000639114568475
-17.712245116836232,-3.5284005302690242,0.2690017112072942
7.9705747441289745,11.481793102498528,0.2121606288618484
14.108688282769505,-21.70750950110119,0.18303543135813458
-25.786368837298557,36.55304635742301,0.10015282747429845
-32.27515229932166,-29.78976143583666,0.2821767177054705
-26.238555544486875,33.519128315393004,0.17966221399172136
19.21969928120597,-1.1984423918413594,0.1122870315653886
7.182607367481316,-33.901729179843734,0.15216782806765303
31.210014407219592,-43.31539799492262,0.20227013970634422
-11.027194975678064,18.45595524108302,0.23411092265567696
-2.93293447794704,16.11188055621,0.2016820599140083
-31.28353422113624,40.54580126531027,0.1363542878550097
-11.542639278567924,4.278484358482865,0.21460529715446838
-8.754483889201286,-16.19608863727338,0.21464662049191383
-35.92938970759825,8.08739433110622,0.2636910074118609
-46.5857498605835,28.956902293531723,0.2406424640453823
-4.52480367773855,-47.718358989767594,0.21876296679107762
-30.060656930000107,3.7196002650842352,0.28820688826645136
8.844157631376842,7.224750187728859,0.14292028208123958
-39.895878868325504,49.9061531541635,0.2511896297433187
8.483858233181698,11.218951963604523,0.1424922395850025
-29.984891644736294,-24.057378610371842,0.1964254530056115
-27.061259775855163,29.302421264447666,0.19132736821141988
6.783677164785399,12.663740981085997,0.15754126101874458
11.027119511904461,-12.115464970058142,0.16467805838465757
3.4843860418721673,7.618890186499466,0.20403695362468288
19.598602805419155,16.977308467421565,0.2058555912552365
-28.489086168321563,31.124042129407847,0.2177889989174225
26.36518028297912,-8.735426502883689,0.20941871213435187
-17.40803716771978,-9.578001193575462,0.20371155402959212
18.063413294400828,1.511213830032306,0.16460944687527979
-23.329859608859834,1.249416075060105,0.22140566298837
-0.13302969456260966,-0.46790725620457385,0.2458267063296351
7.224349289852299,-22.339533773972796,0.24377955289320366
-6.995578649267249,-49.88114846187227,0.20812362585349942
-48.4291087834719,27.09512858499214,0.19406763391978393
-19.541475327171014,27.839364415372298,0.23301736558682595
-32.74207294134495,-4.282056484214016,0.20551472475478966
-10.72555962017092,3.2016692299401566,0.2336326270734407
11.08163392220731,-20.584009176748985,0.1823305741327706
2.6105312369822005,-18.113169192547577,0.10582319550096889
-4.221588790612818,15.083449515709239,0.24794808731166723
-7.40988867416355,-6.266996116981456,0.13081279554691388
-14.402195842804927,23.00512853990954,0.29381835862714595
-6.000018042959594,-12.880420885430189,0.2594708390127668
10.993885628455418,-16.66574969902576,0.2018620497121554
-9.493869940191491,1.7505548878128083,0.2573515807765691
14.239186312067417,22.284072582420116,0.21271616157506057
-35.20294432802943,21.23079284931372,0.13892311566995816
-7.632489101962893,20.335826425121713,0.1610605556921974
-20.10270610098706,-6.218732287184872,0.22521549304192906
-31.03983660481573,34.62603425015452,0.14807957786601883
14.195123673426666,-3.716534025079284,0.17555175832711417
-11.86059973079843,-27.24653270351113,0.2213992790569266
-25.302493623166487,9.002159926815464,0.24343985526145692
46.101957745816065,36.13838484733102,0.03601778162364022
2.978893068736501,44.085959327385225,0.23226467854322733
-25.017543339508908,37.97850257445572,0.2589850127916526
-22.11213384909282,-11.958204391866339,0.3519920217806782
12.708158542931361,40.55527477159313,0.17894678129693684
-8.262522536145328,-28.633550480194526,0.1345044511691753
25.64584426221644,12.585047355464463,0.12171399853135012
-1.4426505538901233,14.352544412817348,0.25502501035176395
39.95564546954102,-17.5115289938507,0.13689843515750738
-36.08599590155237,3.2653272833527676,0.283492431217697
-7.926024542952366,30.73849347984491,0.17537654229609345
-21.15137864466655,24.514775463272912,0.2512112084693766
-23.790546151742817,-24.499322929353138,0.2466364021616441
-20.141067478868628,-48.338055515052616,0.15267989699190015
-1.9785128045327414,41.09735150160165,0.21410683794510293
-22.171274193357927,-25.376098131088398,0.10193086788734051
10.424510648486338,12.294559068422291,0.20906719792437486
-18.068888145903212,7.15204859961961,0.23978696275157424
10.65878721141971,23.456202668943508,0.2131427207478697
-9.690425581304025,11.743210138418709,0.22158294775979814
12.240342300886212,-4.411570570983001,0.21149017446037455
-44.86141965379123,8.016912841067764,0.1528364567033896
-25.39620813122187,-6.947484988533501,0.24696148083026295
14.016501527356581,16.79839970919927,0.21229171419145318
10.983892557471869,12.963219852628974,0.22536749642423898
-24.485008014943123,40.136471025217645,0.17240132374074393
24.935076027235795,-11.170482659826018,0.1768644699158644
-27.523955226817254,-29.917431449913785,0.13220541345017556
20.61536754916058,-10.24856881505029,0.23549631013739522
-13.607713475035638,39.46498576870761,0.150739527936811
4.48937355374856,25.865847349425163,0.22701495280525755
-8.756714847753551,-15.159350182571393,0.1841414833828596
9.311948894649554,37.66612978776891,0.20725279372009026
-4.951655103416581,-29.013691318952528,0.1837350950022504
-43.31180385352826,-19.668810171709293,0.2903380700588628
15.533707673674959,-14.415444421605322,0.19496089788571247
-1.7752558917419516,-0.823340149013853,0.1560862788775803
-13.906932441219217,-13.064280108941034,0.18446285246663477
-31.202465705574816,-2.965192966137861,0.23007968607686008
-41.46229278757762,5.7565181253270605,0.20399276458704882
9.155016813995672,17.20884019679872,0.21760504451298898
-0.45135107108948386,-27.24364657960685,0.13065982081776756
-9.748515953028301,4.09213632505872,0.17235390500047482
4.91163999476057,-26.876177928477503,0.18533556016565025
3.4053196962044354,49.72963932339744,0.2316194030518417
26.651308104555415,3.5211780990784027,0.2431866337986026
22.29033531925743,-34.71143497883762,0.17187546195717995
4.407193258718045,33.3413881719954,0.15326009699000803
34.10304040421772,40.20732981146074,0.18802235059285904
-12.911926190275775,25.623033203012596,0.14553028268068616
16.323156101178423,-20.23259572732213,0.1885412058668976
0.26196180577137784,0.43960761589782354,0.24264477388404873
-22.563897572041604,6.9801972487051,0.1442593415899102
-15.739546655370559,20.63047875931173,0.1943508172422882
-27.42746319033309,-9.780905837767474,0.15620238880941156
-19.72802147190392,3.422230727840629,0.2278485849204613
-20.616637380100922,6.891612572408537,0.11797858011579886
-46.38594177904903,3.2071149688684004,0.1770094052271491
21.462446426244234,-34.54584269808541,0.35260557715712704
10.085607352676197,1.8530898630594788,0.18837797513817361
-37.80007898314093,-31.22143518850719,0.21104467319542375
-20.299068661432756,-15.903914670458516,0.1993396123620364
39.06372474196176,-24.49743616986264,0.19223028659500657
-16.68090104618434,40.482175029578514,0.3005345361447039
-0.9892226391329069,30.320934739234705,0.1684611854748822
20.36701313104692,-5.768061703685587,0.15396690289839823
-25.889382686598534,-30.193548914015196,0.1766793945948457
20.05835808072154,-12.625514536631707,0.13391464741902853
26.795319899832343,-9.46935468239691,0.26183751476811495
-36.26622353474846,-3.3859303449157068,0.3409644103627184
-26.437599554275064,3.187088204383217,0.19697369129999823
-27.241027429726945,12.500410966312044,0.2532900161814107
-32.05694715797687,36.155422095919285,0.1629727856889378
-8.64970556881928,16.834299152761197,0.13863961702758676
42.20406694531456,29.281237823024046,0.21594568109857737
16.85021116675934,-49.46709245189228,0.1350470001579735
37.08638152250282,-0.18150091889129183,0.18181623037026165
-24.26252505525897,-15.748386734839256,0.20125939544717295
39.235846953237576,36.4170452210152,0.18404976948098883
-14.446997240167791,12.136983008451589,0.23067338234358944
-32.14249836079802,3.149864879723118,0.17701993090437687
5.545651607279494,4.737907264591942,0.26293862314661015
15.63670052761923,-11.559575048571249,0.250628257549427
-9.259465761147522,-18.871828592798803,0.24496039031868874
4.351744746496075,12.166089413302682,0.19575257168276433
14.400880439157154,-29.098465287468922,0.24515672844208514
38.10608427894026,11.90661472813635,0.160674420306548
5.548530624176939,-27.25312353583607,0.2380730112836671
-15.902355255925363,-16.581409335909125,0.21788670330141557
-18.53844878075531,46.52841851361412,0.13808127714927276
7.469370329470143,29.272305652995872,0.2649696613598158
3.655843447539056,-21.377575865024966,0.15105857850421417
1.9985928775661854,-19.02504101609381,0.21862960608253912
-5.13041764092993,-1.5150638051687841,0.12761719337898325
-48.290245658251905,10.425082707581012,0.23676389228371822
16.734987379420208,-16.27847169554013,0.1432556384956949
17.388398501061232,10.518162036337248,0.19093166168974185
27.527622316522322,20.46904750830597,0.23316724075246237
3.5118407854842895,-0.7331700753462883,0.21558107449437466
37.73907090935993,-47.57968306796454,0.228412697249125
40.11429550940127,-4.6828851892931365,0.13807445160854126
-1.054878824128196,-29.89885276533285,0.16290618151347402
6.097425450877385,17.501273124104127,0.1485429223300695
7.167331782032919,23.976815551963696,0.16360037733071303
7.827063546711334,-2.808918544776109,0.2114527506763848
19.069359809442243,-23.127918835383873,0.14115802940443828
-22.76557413686432,-47.0762525706131,0.2338414042002086
-33.53414889275651,8.181650904499525,0.10156841044964263
-13.547263734853003,11.2330762971314,0.12528548357529284
-11.057547222019842,14.347078617793116,0.24672956904960808
36.443247572321766,28.147098904488292,0.2034521745872301
-33.26813144005782,13.443539271980868,0.20942245219081854
5.882050910071534,20.513775718099218,0.16561606426610304
-2.0734764206194183,-18.160927352243643,0.1982646541612749
-21.495450149017156,-10.031269285933488,0.1781003861061583
-10.605258692600156,21.74227955713592,0.21733689614588958
-18.83771430695169,44.79053707001827,0.1887777669688235
25.82847745899346,-39.947030563637675,0.150671038969452
0.2566010525965409,7.036958958781968,0.22794717554667182
-44.493480612133126,-7.138175901218006,0.21565263386300443
-42.64344527953513,-0.048942417735049835,0.22851501114489883
27.29382899152284,10.019986329134175,0.15591680897179
14.369694237490952,14.823251567184084,0.16937719318423422
11.740222579435486,26.846534371954622,0.1497310726420582
15.988085974989941,5.77993114444142,0.23502861481186196
29.16887905424389,25.922247113079912,0.2639171521758218
38.52282272317746,-4.90680373469304,0.22365778196240316
-15.337670349242766,12.071837816925136,0.2669247779143209
-42.77595787341123,5.044378125231069,0.24667718482251205
-2.3599573547647243,-30.811659469221446,0.2386341741507047
-12.287465498488519,7.528384838359817,0.25101898791681787
-8.947823704270329,44.40312488030199,0.21812859898935108
-49.718207560731734,10.66684325353914,0.12553121395553163
-14.272412691129176,-21.101351985166755,0.2182719730887815
49.83839699329364,-2.2988674143944765,0.2117349785404248
-32.94771632968761,-1.615401300933333,0.17328085333978463
9.35021434819217,6.2332219427556845,0.31691462693241373
-2.162480165052349,-8.780721521692467,0.20871642401312718
-5.155146591342151,-3.211886788832499,0.20210249260562343
-18.777561318069864,-14.982611466763391,0.136667625729951
3.559653553413359,3.3707166626755263,0.23320368110106868
-12.132255583392972,27.947106617707657,0.15467065930692653
-7.8707017276178615,-25.23842445010483,0.19066262061034137
-14.844355518773686,11.44752165357247,0.2987358257009677
-34.8132779010626,40.01941491063622,0.18719104879492465
-30.607010293358535,30.15189923688391,0.2449053413813671
-22.84336550900393,11.046029560396203,0.15493241850517914
-22.302831415122633,-20.41368729768936,0.19764821533170066
45.80639814014408,4.580901588381559,0.20082026296890354
-21.108868090219147,-2.679567324526664,0.19777895847385576
3.225327663129898,9.027499949617617,0.253045416255997
-29.087081712704737,20.085313250092295,0.1774132114233664
2.4562903657763187,-2.630230077333034,0.26425282502093
-19.189783285125465,6.227453520143249,0.17265575023525845
15.62551271303873,12.715404098675204,0.26590759536062686
-6.486816008509535,-8.523357566233988,0.20989977456471753
-18.926242688134785,-19.54380255562007,0.1802439032294525
-6.13685615962563,6.326697261504699,0.1677588754831003
-1.2326071907648748,-8.7641074839464,0.19565650204225477
-10.074311156202507,-18.44362153923908,0.1566936603970286
-41.55133746782369,15.850955926495066,0.289408037933802
9.543878143474831,19.2674201808605,0.22390860645688312
-11.291511469226592,13.259129698185795,0.24372273976803144
17.709040399053645,6.566926401959729,0.21339714702959622
20.340717673186187,40.5964149552815,0.15416186788903097
6.9253320947330375,4.69694749276875,0.1446915071225076
-2.894668428454378,-14.891099116972208,0.18504654672325885
-3.785296606116421,-1.5801342358523656,0.19074586897452858
5.63047654264233,-10.70475061245645,0.228397917933607
1.8847718916232534,0.25749197078774877,0.21676867631574392
-21.629704344215305,23.874068851371486,0.1206438088361016
23.768777431423015,-12.479192447632837,0.08109237289206524
-0.47979168287058716,-13.913790431841974,0.15715539688168678
10.889635949752908,24.39879340311857,0.20462907097222438
-3.7800581274249847,31.23717969539253,0.25926914716747607
-3.7495926484021607,-7.395787001373315,0.11557240557432996
0.8189088634273348,21.072055613422503,0.11876819389263474
-14.713252542453464,-5.260380656575501,0.13499034678586347
35.74488505820164,-48.58422234268693,0.2389983434799478
49.30945650461062,10.81816177575219,0.17556964685555984
49.74075913047872,-11.999573369475364,0.09441877352241952
14.337939302708133,-32.374853194871285,0.2152101258706552
26.38345207178651,24.37979067919686,0.24114552241224516
43.830449584341174,14.433950296486653,0.2142549605004721
-26.298030477398786,-24.444185786906047,0.23558163518698105
-29.83759766030313,23.497188565987052,0.2298456913226471
41.03828659297413,-22.316668199390488,0.16511549415572815
-12.359254057534905,-24.327780421982137,0.14492346512905396
6.666584706446491,9.093728948695256,0.24679268939138826
2.3567379672243285,24.84594829656625,0.16502466023552925
-7.4852968276821255,23.760231407826893,0.15107092239114775
-34.99794436964758,-19.9540085232739,0.15899774633184607
22.267848013974824,-1.1156153119130334,0.1761123767008777
8.101801294439692,-23.661651721965843,0.18823495575471605
-7.6215562513131845,34.712300755442165,0.16047291025837251
25.331290072315788,-1.2679006466657994,0.2058364572928374
-37.65972760389091,15.999756626977868,0.23242191481127314
12.125674682929086,2.6207798252077663,0.21869671403707602
31.96093932067242,17.814145916492695,0.2644772861225288
15.638476708315782,21.273320466199007,0.24181955788232115
7.108269810115658,-30.174905267366537,0.13182297133376525
10.145886447834274,34.41466283975358,0.1463058162116226
-4.923954227713527,-21.816308193812265,0.23584005299239483
22.62595738287818,31.09590371687554,0.2145097271992077
29.44575856443585,18.817873025064692,0.19812352333645064
36.98510860008002,24.92851752517045,0.30348787062010374
11.849614265168912,26.38678237891357,0.34195279353397
21.13521061259595,4.7752842599201815,0.1879019179460774
-16.019237520039027,6.944316267206625,0.19133911710044976
17.424205803880962,-0.08676944323831652,0.22455509925574307
-25.095600260549887,13.346168347016862,0.1416879727359845
-18.035813574876,11.496230406595213,0.10664753037951599
7.875218762475694,23.223571342574832,0.23347807183416044
-3.0220981593851155,-15.445576625278598,0.2354992532179846
-26.481325950728923,-43.7705812868916,0.25271806172272226
31.108881219946905,19.496750340510417,0.19555874623346395
-18.805557753264946,-12.44352152781648,0.20339688784399082
6.8437234204697255,5.777899319126968,0.1537318091936916
22.04349518798144,9.997559613550512,0.208968074728431
-22.07300844642644,-7.934192109983464,0.14989073821234694
-2.1948078503803616,9.023068931418296,0.18307761644741635
11.626077125629806,7.8488026140948755,0.2982901838506727
-3.901127845008254,3.646595720869201,0.13702076725310078
12.171425653927786,-8.887672345757453,0.22682850188153103
-15.191649197591337,6.6960275715814515,0.16537613351881383
-22.422215409590613,31.292244180239354,0.13273972376267118
-10.956806543975336,21.243699461618952,0.22012951430315883
33.72353975403254,11.038444825053292,0.1738369961520736
5.062061098105422,-5.476549134296393,0.23459915285154448
23.36577261443319,-24.553730345964997,0.1817734783829669
-7.112198494248252,11.354351794138795,0.17581658254908417
10.131798183036315,-19.24881758818529,0.24736136926356242
6.238158784172839,20.793182962635484,0.09421721139818764
3.2693441959344707,1.0925329491329345,0.22218820301883088
35.44969917012776,-5.231768146295598,0.1392794907486182
16.857809850572846,-8.065336132100931,0.14737916008081292
7.15926186090062,-35.04294444360706,0.22248232167357385
-39.09642070626106,-3.4346862556654902,0.2115230718155404
-7.756259561232282,19.311783048306037,0.24730671353966982
38.39600458054101,-27.81403354238781,0.15012051693186812
21.275567345333958,-11.006754356518435,0.12483912785759117
30.00449199799101,25.988378243134186,0.1472594560238677
28.24426285150467,-29.033775003583596,0.10694946256094784
-42.34646080057631,23.620762425623642,0.20888241741130584
-41.78185474924828,-34.94955501168403,0.1659730484365045
6.24358246985578,-13.167458994188152,0.2259718864195398
-46.07316325211397,-6.436573871999922,0.15962907212287938
47.09681580397626,25.45450087199009,0.2988794486356401
24.657322943270465,-8.967526449221685,0.20600142634149668
-26.303027606836345,9.65618730996516,0.16247341195966403
20.222089913806588,-0.6172415568931641,0.19526854498902035
-14.270095116311479,-37.695771905598605,0.21301580164318956
-22.09018879022679,-0.9566292502145612,0.15858660176003553
-15.424095410599154,2.4620237114821437,0.17221700662810502
-5.948269812755601,14.242605179136156,0.18519608993982992
-41.85221185259773,-17.74533082454533,0.24167069980045486
-37.405406852818054,-46.47616486350258,0.1772875662575555
-10.312161775229198,-36.93155714091591,0.2658359410046365
7.244855773075918,7.5906453126493805,0.23883008943201803
41.14161812492772,34.64758929101624,0.29158256768306906
1.947016060431666,41.77051795078888,0.2711262907163635
4.9648202711673814,-7.464164758346614,0.22983112283427914
15.707836682945297,-16.68671009444011,0.2701994811584347
19.681743225089697,-3.0771215925915656,0.11674050175183848
-33.80149482470255,21.27659459436721,0.21435671670581097
-19.868774754560278,7.844957041266977,0.18319894419971472
29.72293313670557,-11.273308661450487,0.2139879802296054
-29.506965254065857,-6.790130388342589,0.212939865549235
24.972681729128794,-35.18652326726892,0.21150168860377266
17.400071214276753,14.616870279485555,0.17817418156838555
-22.73440832284669,-29.79327209517708,0.19207009900030042
-17.203083685732505,-18.193329920368633,0.2018510726828634
-46.02714638601411,42.342642273716194,0.1529197311247011
2.445794717221658,39.25863602333926,0.14461214065417655
-19.974473885357895,-0.9667618721334709,0.17031295725061626
3.190256759644188,-21.633269254361906,0.1719215114733597
-25.197226501501724,13.091047675206205,0.1853052515114038
-4.170093568734691,33.90620897998522,0.2355969149667568
6.4690975184537844,41.27702837621023,0.1626321488381088
-1.2474546676211034,-29.73538324478336,0.2763733462421128
22.048944458650098,14.871112356188318,0.13227926447330407
-21.846837274884315,-13.138272517659624,0.2332134005822553
13.189500215143418,21.94405865014837,0.21942085800035316
-25.174756089604735,-0.005046480735352089,0.22956287162387506
18.20035727474388,25.85784660523646,0.23925498038220297
0.6799266680083212,-18.892460799960254,0.11301897936169675
-18.48936295823557,33.51644005498448,0.15646228509873397
9.39774513871731,-11.756102736638379,0.1016880593541289
-9.022531744934119,6.43028391456281,0.18615162536174445
13.722838709191908,29.35137547898572,0.12950738285251753
-1.40153288038264,12.894942886310343,0.16615603676799984
-28.41947645685367,21.836944440250285,0.15696837793199364
16.252428993214366,-16.57424211891219,0.2144531332171912
-9.418999212170707,8.427987093564672,0.1851916232354198
-23.547656995522654,-3.7069113550551105,0.21736973395878229
4.857869421305654,-21.095565800060964,0.24652714092014488
-9.092586615243645,13.883005987226554,0.12516944993021462
23.425969441146787,11.73371374772702,0.1857715516024607
-3.430600480179115,-24.22876692418158,0.2409659828254203
-34.98531459267011,-2.8060827673629865,0.16735991937036268
-20.110491543138522,21.45123434290237,0.22714358212026373
-30.775024886679002,11.517444839291556,0.3253946452798591
-18.096202746964675,-11.964121800481408,0.16576749282393197
22.134440670323873,-13.99295451406474,0.06658043323564428
-4.243388211514045,18.6091368010084,0.23860075112491386
-2.172720573414138,21.55226132069271,0.1771153332837381
-45.01242063382082,-8.459631481307154,0.1858873086057642
26.57879755506134,-27.732166161954126,0.2175976501872663
24.124407148331855,26.456682668604657,0.15910588927182923
-2.8188352190638963,-11.747078755148479,0.22737047939879776
16.29829661854933,-40.60709053056399,0.20872682700285286
-26.010233587216412,-25.509819774932037,0.21423102462736598
-14.428266265033503,-1.6966383227464805,0.22477305233625033
19.006194941753456,-17.209879630413187,0.26410542752495386
13.453808840293958,7.27876783237269,0.27340044804435293
-9.594598063981895,25.014977326353975,0.2856852497744014
27.696297059899404,-2.9873607085028686,0.24943986180294686
-25.652623137906293,33.55440230422971,0.24768867984063483
-25.774180474827073,41.436593863329136,0.1909117536414716
14.670828367410493,-7.3706266390207125,0.2400547775283855
24.663569165035906,-5.287558148166189,0.30380162159389223
-48.621794326551424,41.006070443704395,0.1881560218729704
-2.36164659687778,20.613557728889724,0.14727387435599287
30.138281356416147,21.03226795302798,0.17691353373450253
13.670476586267585,2.7244975547831563,0.2654184348124192
11.30818836157304,40.239185814974746,0.297999139315734
-3.518207206801253,-6.120284852054088,0.18593782857077026
-25.612922556460944,26.9331649270858,0.1614707921173081
16.06795970876713,-32.50878926048269,0.13941485717462748
-0.9586324485306352,-0.994376701704376,0.23992549744522398
-21.611517723049023,15.645860377422391,0.20513817622984032
5.17639556379247,-36.80055673582998,0.19450359072945447
-31.4688539315832,33.824717674003594,0.27163272490118456
-39.81539584349886,-0.9600620410873971,0.19362161420100427
-3.0236476497990727,-26.81023245859077,0.23368609912094362
21.35836634845188,-12.550073057023226,0.173496789781868
11.932952386477846,-20.575351644697715,0.1296525518736324
13.903772165539092,27.55146983360512,0.23473317105369518
30.477967101794672,-7.1517065620175515,0.1788563004898629
-3.832779227206807,12.683208587996884,0.24313690886122535
-2.0224525855277844,-10.958614526319531,0.15142935727409132
-3.48269727821239,-19.787945166826397,0.21672451144449553
-12.328889104293284,-36.78410793017456,0.20591203648873996
28.214107314724895,-21.74145736661207,0.1995243334326321
19.968192031681504,-32.38783508712597,0.2038675768958023
17.26876782693996,3.5723648021089773,0.235775065746621
6.8798905169480635,-16.897923582327465,0.2522698074139089
13.690293028836145,0.12400057713466697,0.27747464700478786
-27.468630797857063,-18.85229785048818,0.1271865897347689
8.65868399003292,-9.098872893748734,0.18790929952779606
-23.836627792758073,10.587756935334134,0.18419638101644054
-21.75008765339524,-26.05468354504381,0.2671040022047989
3.0995103459150526,20.125707626612915,0.1451074500172876
43.25836783795688,12.02433922045488,0.13723310431723912
4.745398387937341,-24.572068825893588,0.19882593523695605
14.270914513207508,31.855638962436135,0.21742963662763365
-0.7730964173952369,-14.870726664713546,0.1444961603481006
10.169944752086453,-10.182216402545983,0.18570968391404732
-14.651538867071176,16.35118393236941,0.22572063424979183
-5.870048943446279,27.87596669433441,0.230319407367244
-38.53374289499906,45.44974895124887,0.10621538041836802
10.910926384048057,4.746445466443847,0.19077809823471742
-30.228662788561735,15.277972453973957,0.25526100085086767
-4.556684672431914,-24.63125129715943,0.22783880268213405
-2.2555520513185496,-28.365033055337786,0.19156980087428316
-32.645332632485264,44.38120653779777,0.2239096923202487
-15.834847211496502,14.375139801678435,0.15967699143116737
33.74953951833568,-3.4082751617278335,0.20550201076858862
31.98123367280921,18.076932114170063,0.12610980206308328
-22.349148377412558,-16.845234764618414,0.1717834761979904
-12.195934272580624,36.19725678409525,0.2420375035956529
22.40559711904093,35.68759579683244,0.23041842367550572
-11.339390165690887,12.894606201710527,0.2879074471276723
14.330170163123421,33.06518668282241,0.17577329209659126
-29.289530894121558,5.989141450347646,0.2156417247555436
-13.653707711823385,-29.3073823352525,0.1690606740282449
-15.175673310491138,-29.321712046817776,0.22095671701704833
-11.414979251538867,-32.953204116209484,0.21044717108789054
-27.611843847923335,-8.720745483651642,0.13377150326702048
-38.760230346299565,19.95251867218188,0.16559167418729753
48.02647411454918,11.317601330621182,0.165111940555325
27.85086651658949,-14.851055263462781,0.2405920160706902
5.333837176008326,13.277201379364097,0.13200942141560723
3.8074828802236955,-9.915667154016313,0.20151370056872467
-14.71647422202755,11.873319656474045,0.27444154802939585
16.17949118042305,6.078293507634473,0.13142540936729696
-1.4044163845888313,-7.137330354518401,0.2036703134652482
-3.201399288417592,-28.71205578787223,0.18728612227217808
1.9831683122653592,25.87802571745851,0.2505186142254968
-3.3306087416811416,-2.990149057604759,0.26193717475612044
-30.962766670652677,28.41703882522259,0.24669559350738807
3.542279121895481,24.46181032150915,0.289707884851378
-22.95792850331048,-13.37963519396693,0.15385260886057578
11.009794605308372,-3.2651785653004914,0.06611678761456583
-16.902867655603977,-1.6051887616742553,0.19417635736153038
49.374483606181165,47.40296360056212,0.23506524010111113
8.650116936928786,31.73099391159999,0.2269909392065736
25.07128283356586,-15.575414450598688,0.18266937656402069
-0.742160823293251,-22.180749327802996,0.16125877607591865
1.8342511344256733,32.378082180838405,0.21528231117858454
-3.7563056387131533,-3.174873831681748,0.15381253214011648
13.525357175059415,-12.256522782695924,0.1674558943465418
19.6333840190806,31.30696514791078,0.21936535082076467
-45.41839936098654,24.705032043663184,0.2533548391070699
-0.048743014883970745,23.1115660017104,0.19908340263917929
-19.278122650197357,-40.71507309959909,0.16201700967015203
14.01270358684124,34.61659911795772,0.20864396998420956
-25.225663780878506,-0.48782048116546384,0.13839191298067124
16.55351727534155,-27.821370203987044,0.2865824537086148
8.5584669774411,5.306962325318874,0.2477801752365069
13.340076882992125,-32.65788407677348,0.2674828643066698
-4.830299973151657,29.979911090494436,0.18039131387444046
12.234226211069613,28.695954357931484,0.14553571278214114
18.867625492577655,28.07902459553785,0.0879787569896215
31.19358949987147,-14.495668243449161,0.21694010048361775
26.41725139640256,-14.983790014011433,0.20889932494671506
29.659460599687222,-6.343817000403305,0.08188707676630314
23.871165289376876,4.806849387555597,0.22669121329244524
-42.99939207287881,-40.034886040899266,0.20191310984626226
-9.506774108797234,-2.7753419069080407,0.2655534633277222
5.29900688351758,17.84786844117614,0.227266764595799
18.551144035624702,-10.986166198121254,0.28928084111754904
-39.43410426884944,-17.90322814241911,0.2180610478179834
-18.23493368698961,2.56376986512344,0.1765137076082323
26.697814931064524,36.114309289417584,0.2009257753183943
-6.516293212073652,7.129449791001659,0.15039281615788289
-8.115632929765468,-21.528841892424058,0.17904721493153403
21.018474787366987,-44.65199815511245,0.14689620610670734
-21.389867115778312,6.537987214041695,0.13522498209151415
38.74082797985485,-13.958726264658797,0.22637628395734588
10.425632491385164,-43.71191300075466,0.18369102919738634
34.9597850871454,7.008676974056578,0.09603768731442218
17.806683552992943,-32.923623787715485,0.13301968488241034
-23.35793251033338,-4.345507670709014,0.24122611358986293
5.797295447465648,10.904399194245027,0.126341217901284
6.073099883030929,-36.750604592148356,0.21206855486902126
-5.258266196092729,-32.47168635280999,0.21975374049721366
-0.30806052688609087,-2.601767247014717,0.1872520006132592
-27.279143266511756,3.672992797265521,0.25470896689794875
-36.99073320297418,-3.048130560512123,0.15566786668052457
-25.626228525040247,20.417532226513615,0.2741545363233791
-41.64624782985859,-10.72985949618091,0.15215524095791952
26.864179318437913,-1.1622892997887042,0.14943269300165063
-34.45575550576132,15.146898670066522,0.18069472362189665
8.061246757752997,-24.79866222417093,0.1299034738623359
-3.1467439008999483,10.43408659504539,0.1906888659764345
-33.67134558693074,-15.409197915956241,0.17664363902754499
29.577188194307052,42.87296275407322,0.17573337947949189
39.27282089928991,38.47072115808168,0.2669884943803037
-15.240791008054847,-16.296485836765633,0.2448155259124137
-35.85041792925878,-33.846068678147574,0.18814569298957182
-2.2964039996146877,6.124229952060243,0.18530782710253466
-17.177259591460377,-4.3211926971804235,0.1839643435398121
-37.55259946169969,-4.948101553531989,0.24016885835074558
24.26282121874235,-9.551447375774202,0.18823199362660792
-14.570881127368882,-27.576730999992037,0.21270865545343515
-43.711893423185096,12.705833084720519,0.1550146577385747
-2.8785700172242685,5.613334129428309,0.13767040422220816
-7.3865608706138595,-9.080135553764505,0.16160953039767864
30.87432924576971,-28.24106687220298,0.15639960690464152
-14.342756513900317,47.72068592773436,0.148590667372745
-12.191113959047426,5.239288032930709,0.19237278938027513
10.737601767181786,4.320857254383675,0.23732847751787356
1.2408396836447022,25.976410459846033,0.21018308329943156
7.085941218315633,19.375794632542366,0.2173427124073011
8.997113325777432,37.84919521609888,0.21667375460106902
45.46314344953305,0.2719406480923714,0.27387312378348405
18.736569142449163,15.811884714427485,0.19733444188953067
33.058381661286255,33.04617492694767,0.19821496609807504
29.45310020921387,-19.883858784028995,0.2629684592184078
-39.26902526046575,-21.128913863240577,0.2948781590505841
40.13597951712071,42.057981550024444,0.18738529002812845
-23.162412324810898,31.250867654387125,0.1897055615752683
20.086264314289554,-14.304401670274409,0.2131158838184199
-0.5396025530634588,2.580899849021504,0.15186923088558776
-38.522960437373456,20.927776484241274,0.1751547204047496
-34.49558153631202,18.15027079417724,0.18976494938758218
15.066515225365823,-40.29488479880679,0.30088356941958094
-32.16667432377688,10.92006647678223,0.14759218448300226
-43.47413227146399,-24.855565428542747,0.20132939605630248
-7.189826643781743,0.26794263562835996,0.2165138776046382
-23.66762635829693,-21.813506693871627,0.10700957690989424
48.89384626728713,-15.522229482546773,0.25230156249797875
13.468221537362341,-7.481336856177881,0.17704107518128495
-46.41272931787776,15.242930029634715,0.19595234489849295
13.097113953799418,5.703526251459437,0.16494333129415778
27.642969672896122,33.68139869236747,0.23634876999001309
26.50790131366867,-34.040413391215004,0.05152034065683772
-20.3623697837127,6.390678378939446,0.14677439874208587
5.857787355162971,-17.28056797098006,0.1642952527128034
-13.894328493661073,-36.44312410161919,0.23620329677852117
-47.071073236262976,45.84065328631729,0.2164983867802896
19.512575321580787,-10.526165653889544,0.3179627487758537
-28.361194130823502,-34.930608393601496,0.16279838206085742
-20.88221282225687,1.487498615082523,0.2027322101253068
5.564692959836517,28.650905642218405,0.20277754869869147
-36.76051313110544,-10.524288926140258,0.18443521598639723
-35.69771243457473,18.76523937484122,0.125193097837099
0.1636068603132215,-3.9044784485619655,0.13045813130773598
-2.803393700520868,-7.32211336971918,0.13052066796591325
-44.19729296799763,13.187516825361742,0.19668336486071425
-2.406661625995993,7.9877579978263515,0.21103745860067283
18.210369394793354,24.957277117749527,0.12162583098883772
9.877685473060268,-18.38381887232012,0.18029141699574697
0.5092282021064674,-10.053114318605772,0.2120520192135513
-3.9333798190363325,-16.862546116389744,0.12043994084660826
-1.3861746127625734,-6.217190469684324,0.14806246928544625
9.470660547719127,12.788996548752499,0.1584850644750338
-19.571670045095914,2.2954115617163864,0.16222768008489788
-11.419319260978208,-37.992210809964824,0.2121196044425815
-3.5846082544514655,-0.4447448085121657,0.29959514859427167
-0.1316848265157551,16.604006472915508,0.22145436802862944
7.908574987259753,5.08910117247723,0.20650609391327332
-27.49835521690437,-14.906837264921005,0.16032009383164117
-40.747163357161284,8.12752138758845,0.14498893362008405
21.472490019431078,23.101286153771262,0.1595303596236584
10.027195318034563,-9.605989410814669,0.23481210369043526
24.34577952657511,48.57322892318251,0.21770404909607455
4.911229756848211,-20.564377665671305,0.25838765881472986
6.705531849192248,35.87290944092562,0.24168525172969577
-6.235224786059975,-46.89159862425619,0.17877255849551998
-7.305345583141423,10.65900110471422,0.18967864687813793
-16.91485945345206,2.3794714879719456,0.11306176200770522
5.492726246975662,40.78271353425919,0.14396235892491893
-32.49309409760395,-46.46862440833947,0.20667773764223757
-19.380236664315767,-19.519791710202092,0.2070462492723888
-14.508626380484499,-21.08993833093152,0.1943212486981781
31.00976064266323,-36.34962808279614,0.1873995025729547
42.38937322080195,11.746905576634443,0.1684139140818521
19.368938903537472,-9.54871378488978,0.22269776213219092
17.603918936470826,-7.005363584900137,0.2242096108447273
-42.62084607721514,44.59240095861734,0.24330507302729093
39.234083762500575,-36.100565668349454,0.1826064766587503
21.5424413868105,41.573323526564906,0.16828169586747896
-44.839344016701546,-43.970190769892184,0.15453835119859954
3.4272887258025153,35.2287458600294,0.21626553210253752
11.694731395916431,6.963109318531853,0.18039348232690755
-1.4315989888608314,23.6255023122521,0.2528195261344137
-19.15871789097312,31.19575748444324,0.14559045520651442
-7.072762157596421,0.2805747402955339,0.18623799518990086
-6.904836262848119,1.4173829996569776,0.15991206125680146
10.840956016016158,38.4326793225219,0.2536133888715959
-13.47870142026008,-1.9810944900094531,0.19205662602124798
0.4278216359779539,-20.12007234551258,0.16757223691777406
34.9594392921773,-17.03385767862887,0.1509480470996928
-19.072687046187003,17.381111294884953,0.16208101465259597
14.01853292764414,-2.619653449657879,0.23498204627863087
3.220910299389041,15.19420598063676,0.14517485126174656
-6.398192602842788,3.4023790979324016,0.2315883489616432
27.580189985537366,10.326968042046477,0.15258956752647806
30.26269634439621,19.418103993946247,0.2187540479486153
38.8209618630295,-30.67325780052994,0.2594956360205679
43.78273617220751,0.28313717782717285,0.13745614322894859
-11.548002602840114,-17.417392017470785,0.12058140288509023
-48.323490614429836,46.576048301854826,0.0860704852306863
15.296871740955714,-1.6084299138379887,0.1930008004217938
-37.75871961537426,24.08504297084822,0.24094830837459458
-27.510016071855585,23.508721182462892,0.18439968160332126
21.491343020566852,-13.086192957454118,0.2059435635315033
-17.713429543252097,-24.496202696357123,0.26969677108247947
15.262783570579725,7.933234073577053,0.20209463643550035
14.626421558833256,-13.472922229664535,0.18768549836690818
45.99311390157325,-24.24513475552032,0.21816739964043497
16.187737454179082,20.72704971167766,0.22967964929855292
-3.839181200451421,27.876313743519848,0.2318003446369869
5.500953752868169,7.830820432051213,0.19445141241314812
24.012948656276116,-35.82771829901847,0.13108657366827187
6.399174829496868,-49.969433813872165,0.27346189776753965
35.868312218809564,-20.173224260427663,0.19913658446636165
